ply
format ascii 1.0
element vertex 1606
property float x
property float y
property float z
end_header
-0.9285714 -15.785714 116.21429
-0.9285714 -13.928572 116.21429
-0.9285714 -12.071428 116.21429
-0.9285714 -10.214286 116.21429
-0.9285714 -8.357142 116.21429
-0.9285714 -6.5 116.21429
-0.9285714 -4.642857 116.21429
-0.9285714 -2.7857144 116.21429
-0.9285714 -0.9285714 116.21429
-0.9285714 0.9285714 116.21429
-0.9285714 2.7857144 116.21429
-0.9285714 4.642857 116.21429
-0.9285714 6.5 116.21429
-0.9285714 8.357142 116.21429
-0.9285714 10.214286 116.21429
-0.9285714 12.071428 116.21429
-0.9285714 13.928572 116.21429
-0.9285714 15.785714 116.21429
-0.9285714 17.642857 116.21429
-0.9285714 19.5 116.21429
-0.9285714 21.357143 116.21429
-0.9285714 23.214285 116.21429
-0.9285714 25.071428 116.21429
-0.9285714 26.928572 116.21429
-0.9285714 -28.785715 114.35714
-0.9285714 -26.928572 114.35714
-0.9285714 -25.071428 114.35714
-0.9285714 -23.214285 114.35714
-0.9285714 -21.357143 114.35714
-0.9285714 -19.5 114.35714
-0.9285714 -17.642857 114.35714
-0.9285714 -15.785714 114.35714
-0.9285714 -13.928572 114.35714
-0.9285714 -12.071428 114.35714
-0.9285714 -10.214286 114.35714
-0.9285714 -8.357142 114.35714
-0.9285714 -6.5 114.35714
-0.9285714 -4.642857 114.35714
-0.9285714 -2.7857144 114.35714
-0.9285714 -0.9285714 114.35714
-0.9285714 0.9285714 114.35714
-0.9285714 2.7857144 114.35714
-0.9285714 4.642857 114.35714
-0.9285714 6.5 114.35714
-0.9285714 8.357142 114.35714
-0.9285714 10.214286 114.35714
-0.9285714 12.071428 114.35714
-0.9285714 13.928572 114.35714
-0.9285714 15.785714 114.35714
-0.9285714 17.642857 114.35714
-0.9285714 19.5 114.35714
-0.9285714 21.357143 114.35714
-0.9285714 23.214285 114.35714
-0.9285714 25.071428 114.35714
-0.9285714 26.928572 114.35714
-0.9285714 28.785715 114.35714
-0.9285714 -26.928572 112.5
-0.9285714 -25.071428 112.5
-0.9285714 -23.214285 112.5
-0.9285714 -21.357143 112.5
-0.9285714 -19.5 112.5
-0.9285714 -17.642857 112.5
-0.9285714 -15.785714 112.5
-0.9285714 -13.928572 112.5
-0.9285714 -12.071428 112.5
-0.9285714 -10.214286 112.5
-0.9285714 -8.357142 112.5
-0.9285714 -6.5 112.5
-0.9285714 -4.642857 112.5
-0.9285714 -2.7857144 112.5
-0.9285714 -0.9285714 112.5
-0.9285714 0.9285714 112.5
-0.9285714 2.7857144 112.5
-0.9285714 4.642857 112.5
-0.9285714 6.5 112.5
-0.9285714 8.357142 112.5
-0.9285714 10.214286 112.5
-0.9285714 12.071428 112.5
-0.9285714 13.928572 112.5
-0.9285714 15.785714 112.5
-0.9285714 17.642857 112.5
-0.9285714 19.5 112.5
-0.9285714 21.357143 112.5
-0.9285714 23.214285 112.5
-0.9285714 25.071428 112.5
-0.9285714 26.928572 112.5
-0.9285714 28.785715 112.5
-0.9285714 30.642857 112.5
-0.9285714 -26.928572 110.64286
-0.9285714 -25.071428 110.64286
-0.9285714 -23.214285 110.64286
-0.9285714 -21.357143 110.64286
-0.9285714 -19.5 110.64286
-0.9285714 -17.642857 110.64286
-0.9285714 -15.785714 110.64286
-0.9285714 -13.928572 110.64286
-0.9285714 -12.071428 110.64286
-0.9285714 -10.214286 110.64286
-0.9285714 -8.357142 110.64286
-0.9285714 -6.5 110.64286
-0.9285714 -4.642857 110.64286
-0.9285714 -2.7857144 110.64286
-0.9285714 -0.9285714 110.64286
-0.9285714 0.9285714 110.64286
-0.9285714 2.7857144 110.64286
-0.9285714 4.642857 110.64286
-0.9285714 6.5 110.64286
-0.9285714 8.357142 110.64286
-0.9285714 10.214286 110.64286
-0.9285714 12.071428 110.64286
-0.9285714 13.928572 110.64286
-0.9285714 15.785714 110.64286
-0.9285714 17.642857 110.64286
-0.9285714 19.5 110.64286
-0.9285714 21.357143 110.64286
-0.9285714 23.214285 110.64286
-0.9285714 25.071428 110.64286
-0.9285714 26.928572 110.64286
-0.9285714 28.785715 110.64286
-0.9285714 30.642857 110.64286
-0.9285714 32.5 110.64286
-0.9285714 -26.928572 108.78571
-0.9285714 -25.071428 108.78571
-0.9285714 -23.214285 108.78571
-0.9285714 -21.357143 108.78571
-0.9285714 -19.5 108.78571
-0.9285714 -17.642857 108.78571
-0.9285714 -15.785714 108.78571
-0.9285714 -13.928572 108.78571
-0.9285714 -12.071428 108.78571
-0.9285714 -10.214286 108.78571
-0.9285714 -8.357142 108.78571
-0.9285714 -6.5 108.78571
-0.9285714 -4.642857 108.78571
-0.9285714 -2.7857144 108.78571
-0.9285714 -0.9285714 108.78571
-0.9285714 0.9285714 108.78571
-0.9285714 2.7857144 108.78571
-0.9285714 4.642857 108.78571
-0.9285714 6.5 108.78571
-0.9285714 8.357142 108.78571
-0.9285714 10.214286 108.78571
-0.9285714 12.071428 108.78571
-0.9285714 13.928572 108.78571
-0.9285714 15.785714 108.78571
-0.9285714 17.642857 108.78571
-0.9285714 19.5 108.78571
-0.9285714 21.357143 108.78571
-0.9285714 23.214285 108.78571
-0.9285714 25.071428 108.78571
-0.9285714 26.928572 108.78571
-0.9285714 28.785715 108.78571
-0.9285714 30.642857 108.78571
-0.9285714 32.5 108.78571
-0.9285714 -25.071428 106.92857
-0.9285714 -23.214285 106.92857
-0.9285714 -21.357143 106.92857
-0.9285714 -19.5 106.92857
-0.9285714 -17.642857 106.92857
-0.9285714 -15.785714 106.92857
-0.9285714 -13.928572 106.92857
-0.9285714 -12.071428 106.92857
-0.9285714 -10.214286 106.92857
-0.9285714 -8.357142 106.92857
-0.9285714 -6.5 106.92857
-0.9285714 -4.642857 106.92857
-0.9285714 -2.7857144 106.92857
-0.9285714 -0.9285714 106.92857
-0.9285714 0.9285714 106.92857
-0.9285714 2.7857144 106.92857
-0.9285714 4.642857 106.92857
-0.9285714 6.5 106.92857
-0.9285714 8.357142 106.92857
-0.9285714 10.214286 106.92857
-0.9285714 12.071428 106.92857
-0.9285714 13.928572 106.92857
-0.9285714 15.785714 106.92857
-0.9285714 17.642857 106.92857
-0.9285714 19.5 106.92857
-0.9285714 21.357143 106.92857
-0.9285714 23.214285 106.92857
-0.9285714 25.071428 106.92857
-0.9285714 26.928572 106.92857
-0.9285714 28.785715 106.92857
-0.9285714 30.642857 106.92857
-0.9285714 32.5 106.92857
-0.9285714 34.357143 106.92857
-0.9285714 -25.071428 105.07143
-0.9285714 -23.214285 105.07143
-0.9285714 -21.357143 105.07143
-0.9285714 -19.5 105.07143
-0.9285714 -17.642857 105.07143
-0.9285714 -15.785714 105.07143
-0.9285714 -13.928572 105.07143
-0.9285714 -12.071428 105.07143
-0.9285714 -10.214286 105.07143
-0.9285714 -8.357142 105.07143
-0.9285714 -6.5 105.07143
-0.9285714 -4.642857 105.07143
-0.9285714 -2.7857144 105.07143
-0.9285714 -0.9285714 105.07143
-0.9285714 0.9285714 105.07143
-0.9285714 2.7857144 105.07143
-0.9285714 4.642857 105.07143
-0.9285714 6.5 105.07143
-0.9285714 8.357142 105.07143
-0.9285714 10.214286 105.07143
-0.9285714 12.071428 105.07143
-0.9285714 13.928572 105.07143
-0.9285714 15.785714 105.07143
-0.9285714 17.642857 105.07143
-0.9285714 19.5 105.07143
-0.9285714 21.357143 105.07143
-0.9285714 23.214285 105.07143
-0.9285714 25.071428 105.07143
-0.9285714 26.928572 105.07143
-0.9285714 28.785715 105.07143
-0.9285714 30.642857 105.07143
-0.9285714 32.5 105.07143
-0.9285714 34.357143 105.07143
-0.9285714 -25.071428 103.21429
-0.9285714 -23.214285 103.21429
-0.9285714 -21.357143 103.21429
-0.9285714 -19.5 103.21429
-0.9285714 -17.642857 103.21429
-0.9285714 -15.785714 103.21429
-0.9285714 -13.928572 103.21429
-0.9285714 -12.071428 103.21429
-0.9285714 -10.214286 103.21429
-0.9285714 -8.357142 103.21429
-0.9285714 -6.5 103.21429
-0.9285714 -4.642857 103.21429
-0.9285714 -2.7857144 103.21429
-0.9285714 -0.9285714 103.21429
-0.9285714 0.9285714 103.21429
-0.9285714 2.7857144 103.21429
-0.9285714 4.642857 103.21429
-0.9285714 6.5 103.21429
-0.9285714 8.357142 103.21429
-0.9285714 10.214286 103.21429
-0.9285714 12.071428 103.21429
-0.9285714 13.928572 103.21429
-0.9285714 15.785714 103.21429
-0.9285714 17.642857 103.21429
-0.9285714 19.5 103.21429
-0.9285714 21.357143 103.21429
-0.9285714 23.214285 103.21429
-0.9285714 25.071428 103.21429
-0.9285714 26.928572 103.21429
-0.9285714 28.785715 103.21429
-0.9285714 30.642857 103.21429
-0.9285714 32.5 103.21429
-0.9285714 34.357143 103.21429
-0.9285714 36.214287 103.21429
-0.9285714 -23.214285 101.35714
-0.9285714 -21.357143 101.35714
-0.9285714 -19.5 101.35714
-0.9285714 -17.642857 101.35714
-0.9285714 -15.785714 101.35714
-0.9285714 -13.928572 101.35714
-0.9285714 -12.071428 101.35714
-0.9285714 -10.214286 101.35714
-0.9285714 -8.357142 101.35714
-0.9285714 -6.5 101.35714
-0.9285714 -4.642857 101.35714
-0.9285714 -2.7857144 101.35714
-0.9285714 -0.9285714 101.35714
-0.9285714 0.9285714 101.35714
-0.9285714 2.7857144 101.35714
-0.9285714 4.642857 101.35714
-0.9285714 6.5 101.35714
-0.9285714 8.357142 101.35714
-0.9285714 10.214286 101.35714
-0.9285714 12.071428 101.35714
-0.9285714 13.928572 101.35714
-0.9285714 15.785714 101.35714
-0.9285714 17.642857 101.35714
-0.9285714 19.5 101.35714
-0.9285714 21.357143 101.35714
-0.9285714 23.214285 101.35714
-0.9285714 25.071428 101.35714
-0.9285714 26.928572 101.35714
-0.9285714 28.785715 101.35714
-0.9285714 30.642857 101.35714
-0.9285714 32.5 101.35714
-0.9285714 34.357143 101.35714
-0.9285714 36.214287 101.35714
-0.9285714 -21.357143 99.5
-0.9285714 -19.5 99.5
-0.9285714 -17.642857 99.5
-0.9285714 -15.785714 99.5
-0.9285714 -13.928572 99.5
-0.9285714 -12.071428 99.5
-0.9285714 -10.214286 99.5
-0.9285714 -8.357142 99.5
-0.9285714 -6.5 99.5
-0.9285714 -4.642857 99.5
-0.9285714 -2.7857144 99.5
-0.9285714 -0.9285714 99.5
-0.9285714 0.9285714 99.5
-0.9285714 2.7857144 99.5
-0.9285714 4.642857 99.5
-0.9285714 6.5 99.5
-0.9285714 8.357142 99.5
-0.9285714 10.214286 99.5
-0.9285714 12.071428 99.5
-0.9285714 13.928572 99.5
-0.9285714 15.785714 99.5
-0.9285714 17.642857 99.5
-0.9285714 19.5 99.5
-0.9285714 21.357143 99.5
-0.9285714 23.214285 99.5
-0.9285714 25.071428 99.5
-0.9285714 26.928572 99.5
-0.9285714 28.785715 99.5
-0.9285714 30.642857 99.5
-0.9285714 32.5 99.5
-0.9285714 34.357143 99.5
-0.9285714 36.214287 99.5
-0.9285714 38.07143 99.5
-0.9285714 -19.5 97.64286
-0.9285714 -17.642857 97.64286
-0.9285714 -15.785714 97.64286
-0.9285714 -13.928572 97.64286
-0.9285714 -12.071428 97.64286
-0.9285714 -10.214286 97.64286
-0.9285714 -8.357142 97.64286
-0.9285714 -6.5 97.64286
-0.9285714 -4.642857 97.64286
-0.9285714 -2.7857144 97.64286
-0.9285714 -0.9285714 97.64286
-0.9285714 0.9285714 97.64286
-0.9285714 2.7857144 97.64286
-0.9285714 4.642857 97.64286
-0.9285714 6.5 97.64286
-0.9285714 8.357142 97.64286
-0.9285714 10.214286 97.64286
-0.9285714 12.071428 97.64286
-0.9285714 13.928572 97.64286
-0.9285714 15.785714 97.64286
-0.9285714 17.642857 97.64286
-0.9285714 19.5 97.64286
-0.9285714 21.357143 97.64286
-0.9285714 23.214285 97.64286
-0.9285714 25.071428 97.64286
-0.9285714 26.928572 97.64286
-0.9285714 28.785715 97.64286
-0.9285714 30.642857 97.64286
-0.9285714 32.5 97.64286
-0.9285714 34.357143 97.64286
-0.9285714 36.214287 97.64286
-0.9285714 -17.642857 95.78571
-0.9285714 -15.785714 95.78571
-0.9285714 -13.928572 95.78571
-0.9285714 -12.071428 95.78571
-0.9285714 -10.214286 95.78571
-0.9285714 -8.357142 95.78571
-0.9285714 -6.5 95.78571
-0.9285714 -4.642857 95.78571
-0.9285714 -2.7857144 95.78571
-0.9285714 -0.9285714 95.78571
-0.9285714 0.9285714 95.78571
-0.9285714 2.7857144 95.78571
-0.9285714 4.642857 95.78571
-0.9285714 6.5 95.78571
-0.9285714 8.357142 95.78571
-0.9285714 10.214286 95.78571
-0.9285714 12.071428 95.78571
-0.9285714 13.928572 95.78571
-0.9285714 15.785714 95.78571
-0.9285714 17.642857 95.78571
-0.9285714 19.5 95.78571
-0.9285714 21.357143 95.78571
-0.9285714 23.214285 95.78571
-0.9285714 25.071428 95.78571
-0.9285714 26.928572 95.78571
-0.9285714 28.785715 95.78571
-0.9285714 30.642857 95.78571
-0.9285714 32.5 95.78571
-0.9285714 34.357143 95.78571
-0.9285714 36.214287 95.78571
-0.9285714 -17.642857 93.92857
-0.9285714 -15.785714 93.92857
-0.9285714 -13.928572 93.92857
-0.9285714 -12.071428 93.92857
-0.9285714 -10.214286 93.92857
-0.9285714 -8.357142 93.92857
-0.9285714 -6.5 93.92857
-0.9285714 -4.642857 93.92857
-0.9285714 -2.7857144 93.92857
-0.9285714 -0.9285714 93.92857
-0.9285714 0.9285714 93.92857
-0.9285714 2.7857144 93.92857
-0.9285714 4.642857 93.92857
-0.9285714 6.5 93.92857
-0.9285714 8.357142 93.92857
-0.9285714 10.214286 93.92857
-0.9285714 12.071428 93.92857
-0.9285714 13.928572 93.92857
-0.9285714 15.785714 93.92857
-0.9285714 17.642857 93.92857
-0.9285714 19.5 93.92857
-0.9285714 21.357143 93.92857
-0.9285714 23.214285 93.92857
-0.9285714 25.071428 93.92857
-0.9285714 26.928572 93.92857
-0.9285714 28.785715 93.92857
-0.9285714 30.642857 93.92857
-0.9285714 32.5 93.92857
-0.9285714 34.357143 93.92857
-0.9285714 36.214287 93.92857
-0.9285714 38.07143 93.92857
-0.9285714 -17.642857 92.07143
-0.9285714 -15.785714 92.07143
-0.9285714 -13.928572 92.07143
-0.9285714 -12.071428 92.07143
-0.9285714 -10.214286 92.07143
-0.9285714 -8.357142 92.07143
-0.9285714 -6.5 92.07143
-0.9285714 -4.642857 92.07143
-0.9285714 -2.7857144 92.07143
-0.9285714 -0.9285714 92.07143
-0.9285714 0.9285714 92.07143
-0.9285714 2.7857144 92.07143
-0.9285714 4.642857 92.07143
-0.9285714 6.5 92.07143
-0.9285714 8.357142 92.07143
-0.9285714 10.214286 92.07143
-0.9285714 12.071428 92.07143
-0.9285714 13.928572 92.07143
-0.9285714 15.785714 92.07143
-0.9285714 17.642857 92.07143
-0.9285714 19.5 92.07143
-0.9285714 21.357143 92.07143
-0.9285714 23.214285 92.07143
-0.9285714 25.071428 92.07143
-0.9285714 26.928572 92.07143
-0.9285714 28.785715 92.07143
-0.9285714 30.642857 92.07143
-0.9285714 32.5 92.07143
-0.9285714 34.357143 92.07143
-0.9285714 36.214287 92.07143
-0.9285714 38.07143 92.07143
-0.9285714 -19.5 90.21429
-0.9285714 -17.642857 90.21429
-0.9285714 -15.785714 90.21429
-0.9285714 -13.928572 90.21429
-0.9285714 -12.071428 90.21429
-0.9285714 -10.214286 90.21429
-0.9285714 -8.357142 90.21429
-0.9285714 -6.5 90.21429
-0.9285714 -4.642857 90.21429
-0.9285714 -2.7857144 90.21429
-0.9285714 -0.9285714 90.21429
-0.9285714 0.9285714 90.21429
-0.9285714 2.7857144 90.21429
-0.9285714 4.642857 90.21429
-0.9285714 6.5 90.21429
-0.9285714 8.357142 90.21429
-0.9285714 10.214286 90.21429
-0.9285714 12.071428 90.21429
-0.9285714 13.928572 90.21429
-0.9285714 15.785714 90.21429
-0.9285714 17.642857 90.21429
-0.9285714 19.5 90.21429
-0.9285714 21.357143 90.21429
-0.9285714 23.214285 90.21429
-0.9285714 25.071428 90.21429
-0.9285714 26.928572 90.21429
-0.9285714 28.785715 90.21429
-0.9285714 30.642857 90.21429
-0.9285714 32.5 90.21429
-0.9285714 34.357143 90.21429
-0.9285714 36.214287 90.21429
-0.9285714 38.07143 90.21429
-0.9285714 -23.214285 88.35714
-0.9285714 -21.357143 88.35714
-0.9285714 -19.5 88.35714
-0.9285714 -17.642857 88.35714
-0.9285714 -15.785714 88.35714
-0.9285714 -13.928572 88.35714
-0.9285714 -12.071428 88.35714
-0.9285714 -10.214286 88.35714
-0.9285714 -8.357142 88.35714
-0.9285714 -6.5 88.35714
-0.9285714 -4.642857 88.35714
-0.9285714 -2.7857144 88.35714
-0.9285714 -0.9285714 88.35714
-0.9285714 0.9285714 88.35714
-0.9285714 2.7857144 88.35714
-0.9285714 4.642857 88.35714
-0.9285714 6.5 88.35714
-0.9285714 8.357142 88.35714
-0.9285714 10.214286 88.35714
-0.9285714 12.071428 88.35714
-0.9285714 13.928572 88.35714
-0.9285714 15.785714 88.35714
-0.9285714 17.642857 88.35714
-0.9285714 19.5 88.35714
-0.9285714 21.357143 88.35714
-0.9285714 23.214285 88.35714
-0.9285714 25.071428 88.35714
-0.9285714 26.928572 88.35714
-0.9285714 28.785715 88.35714
-0.9285714 30.642857 88.35714
-0.9285714 32.5 88.35714
-0.9285714 34.357143 88.35714
-0.9285714 36.214287 88.35714
-0.9285714 38.07143 88.35714
-0.9285714 -26.928572 86.5
-0.9285714 -25.071428 86.5
-0.9285714 -23.214285 86.5
-0.9285714 -21.357143 86.5
-0.9285714 -19.5 86.5
-0.9285714 -17.642857 86.5
-0.9285714 -15.785714 86.5
-0.9285714 -13.928572 86.5
-0.9285714 -12.071428 86.5
-0.9285714 -10.214286 86.5
-0.9285714 -8.357142 86.5
-0.9285714 -6.5 86.5
-0.9285714 -4.642857 86.5
-0.9285714 -2.7857144 86.5
-0.9285714 -0.9285714 86.5
-0.9285714 0.9285714 86.5
-0.9285714 2.7857144 86.5
-0.9285714 4.642857 86.5
-0.9285714 6.5 86.5
-0.9285714 8.357142 86.5
-0.9285714 10.214286 86.5
-0.9285714 12.071428 86.5
-0.9285714 13.928572 86.5
-0.9285714 15.785714 86.5
-0.9285714 17.642857 86.5
-0.9285714 19.5 86.5
-0.9285714 21.357143 86.5
-0.9285714 23.214285 86.5
-0.9285714 25.071428 86.5
-0.9285714 26.928572 86.5
-0.9285714 28.785715 86.5
-0.9285714 30.642857 86.5
-0.9285714 32.5 86.5
-0.9285714 34.357143 86.5
-0.9285714 36.214287 86.5
-0.9285714 38.07143 86.5
-0.9285714 -28.785715 84.64286
-0.9285714 -26.928572 84.64286
-0.9285714 -25.071428 84.64286
-0.9285714 -23.214285 84.64286
-0.9285714 -21.357143 84.64286
-0.9285714 -19.5 84.64286
-0.9285714 -17.642857 84.64286
-0.9285714 -15.785714 84.64286
-0.9285714 -13.928572 84.64286
-0.9285714 -12.071428 84.64286
-0.9285714 -10.214286 84.64286
-0.9285714 -8.357142 84.64286
-0.9285714 -6.5 84.64286
-0.9285714 -4.642857 84.64286
-0.9285714 -2.7857144 84.64286
-0.9285714 -0.9285714 84.64286
-0.9285714 0.9285714 84.64286
-0.9285714 2.7857144 84.64286
-0.9285714 4.642857 84.64286
-0.9285714 6.5 84.64286
-0.9285714 8.357142 84.64286
-0.9285714 10.214286 84.64286
-0.9285714 12.071428 84.64286
-0.9285714 13.928572 84.64286
-0.9285714 15.785714 84.64286
-0.9285714 17.642857 84.64286
-0.9285714 19.5 84.64286
-0.9285714 21.357143 84.64286
-0.9285714 23.214285 84.64286
-0.9285714 25.071428 84.64286
-0.9285714 26.928572 84.64286
-0.9285714 28.785715 84.64286
-0.9285714 30.642857 84.64286
-0.9285714 32.5 84.64286
-0.9285714 34.357143 84.64286
-0.9285714 36.214287 84.64286
-0.9285714 38.07143 84.64286
-0.9285714 -28.785715 82.78571
-0.9285714 -26.928572 82.78571
-0.9285714 -25.071428 82.78571
-0.9285714 -23.214285 82.78571
-0.9285714 -21.357143 82.78571
-0.9285714 -19.5 82.78571
-0.9285714 -17.642857 82.78571
-0.9285714 -15.785714 82.78571
-0.9285714 -13.928572 82.78571
-0.9285714 -12.071428 82.78571
-0.9285714 -10.214286 82.78571
-0.9285714 -8.357142 82.78571
-0.9285714 -6.5 82.78571
-0.9285714 -4.642857 82.78571
-0.9285714 -2.7857144 82.78571
-0.9285714 -0.9285714 82.78571
-0.9285714 0.9285714 82.78571
-0.9285714 2.7857144 82.78571
-0.9285714 4.642857 82.78571
-0.9285714 6.5 82.78571
-0.9285714 8.357142 82.78571
-0.9285714 10.214286 82.78571
-0.9285714 12.071428 82.78571
-0.9285714 13.928572 82.78571
-0.9285714 15.785714 82.78571
-0.9285714 17.642857 82.78571
-0.9285714 19.5 82.78571
-0.9285714 21.357143 82.78571
-0.9285714 23.214285 82.78571
-0.9285714 25.071428 82.78571
-0.9285714 26.928572 82.78571
-0.9285714 28.785715 82.78571
-0.9285714 30.642857 82.78571
-0.9285714 -30.642857 80.92857
-0.9285714 -28.785715 80.92857
-0.9285714 -26.928572 80.92857
-0.9285714 -25.071428 80.92857
-0.9285714 -23.214285 80.92857
-0.9285714 -21.357143 80.92857
-0.9285714 -19.5 80.92857
-0.9285714 -17.642857 80.92857
-0.9285714 -15.785714 80.92857
-0.9285714 -13.928572 80.92857
-0.9285714 -12.071428 80.92857
-0.9285714 -10.214286 80.92857
-0.9285714 -8.357142 80.92857
-0.9285714 -6.5 80.92857
-0.9285714 -4.642857 80.92857
-0.9285714 -2.7857144 80.92857
-0.9285714 -0.9285714 80.92857
-0.9285714 0.9285714 80.92857
-0.9285714 2.7857144 80.92857
-0.9285714 4.642857 80.92857
-0.9285714 6.5 80.92857
-0.9285714 8.357142 80.92857
-0.9285714 10.214286 80.92857
-0.9285714 12.071428 80.92857
-0.9285714 13.928572 80.92857
-0.9285714 15.785714 80.92857
-0.9285714 17.642857 80.92857
-0.9285714 19.5 80.92857
-0.9285714 21.357143 80.92857
-0.9285714 23.214285 80.92857
-0.9285714 25.071428 80.92857
-0.9285714 26.928572 80.92857
-0.9285714 28.785715 80.92857
-0.9285714 30.642857 80.92857
-2.7857144 -34.357143 164.5
-2.7857144 -32.5 164.5
-2.7857144 -30.642857 164.5
-2.7857144 -28.785715 164.5
-2.7857144 -26.928572 164.5
-2.7857144 -25.071428 164.5
-2.7857144 -23.214285 164.5
-2.7857144 -21.357143 164.5
-2.7857144 -19.5 164.5
-2.7857144 -17.642857 164.5
-2.7857144 -15.785714 164.5
-2.7857144 -34.357143 162.64285
-2.7857144 -32.5 162.64285
-2.7857144 -30.642857 162.64285
-2.7857144 -28.785715 162.64285
-2.7857144 -26.928572 162.64285
-2.7857144 -25.071428 162.64285
-2.7857144 -23.214285 162.64285
-2.7857144 -21.357143 162.64285
-2.7857144 -19.5 162.64285
-2.7857144 -17.642857 162.64285
-2.7857144 -15.785714 162.64285
-2.7857144 -13.928572 162.64285
-2.7857144 -12.071428 162.64285
-2.7857144 -10.214286 162.64285
-2.7857144 -6.5 162.64285
-2.7857144 -4.642857 162.64285
-2.7857144 -38.07143 160.78572
-2.7857144 -36.214287 160.78572
-2.7857144 -34.357143 160.78572
-2.7857144 -32.5 160.78572
-2.7857144 -30.642857 160.78572
-2.7857144 -28.785715 160.78572
-2.7857144 -26.928572 160.78572
-2.7857144 -25.071428 160.78572
-2.7857144 -23.214285 160.78572
-2.7857144 -21.357143 160.78572
-2.7857144 -19.5 160.78572
-2.7857144 -17.642857 160.78572
-2.7857144 -15.785714 160.78572
-2.7857144 -13.928572 160.78572
-2.7857144 -12.071428 160.78572
-2.7857144 -10.214286 160.78572
-2.7857144 -8.357142 160.78572
-2.7857144 -6.5 160.78572
-2.7857144 -4.642857 160.78572
-2.7857144 -2.7857144 160.78572
-2.7857144 -0.9285714 160.78572
-2.7857144 -39.92857 158.92857
-2.7857144 -38.07143 158.92857
-2.7857144 -36.214287 158.92857
-2.7857144 -34.357143 158.92857
-2.7857144 -32.5 158.92857
-2.7857144 -30.642857 158.92857
-2.7857144 -28.785715 158.92857
-2.7857144 -26.928572 158.92857
-2.7857144 -25.071428 158.92857
-2.7857144 -23.214285 158.92857
-2.7857144 -21.357143 158.92857
-2.7857144 -19.5 158.92857
-2.7857144 -17.642857 158.92857
-2.7857144 -15.785714 158.92857
-2.7857144 -13.928572 158.92857
-2.7857144 -12.071428 158.92857
-2.7857144 -10.214286 158.92857
-2.7857144 -8.357142 158.92857
-2.7857144 -6.5 158.92857
-2.7857144 -4.642857 158.92857
-2.7857144 -2.7857144 158.92857
-2.7857144 -0.9285714 158.92857
-2.7857144 0.9285714 158.92857
-2.7857144 2.7857144 158.92857
-2.7857144 6.5 158.92857
-2.7857144 12.071428 158.92857
-2.7857144 13.928572 158.92857
-2.7857144 15.785714 158.92857
-2.7857144 -41.785713 157.07143
-2.7857144 -39.92857 157.07143
-2.7857144 -38.07143 157.07143
-2.7857144 -36.214287 157.07143
-2.7857144 -34.357143 157.07143
-2.7857144 -32.5 157.07143
-2.7857144 -30.642857 157.07143
-2.7857144 -28.785715 157.07143
-2.7857144 -26.928572 157.07143
-2.7857144 -25.071428 157.07143
-2.7857144 -23.214285 157.07143
-2.7857144 -21.357143 157.07143
-2.7857144 -19.5 157.07143
-2.7857144 -17.642857 157.07143
-2.7857144 -15.785714 157.07143
-2.7857144 -13.928572 157.07143
-2.7857144 -12.071428 157.07143
-2.7857144 -10.214286 157.07143
-2.7857144 -8.357142 157.07143
-2.7857144 -6.5 157.07143
-2.7857144 -4.642857 157.07143
-2.7857144 -2.7857144 157.07143
-2.7857144 -0.9285714 157.07143
-2.7857144 0.9285714 157.07143
-2.7857144 2.7857144 157.07143
-2.7857144 4.642857 157.07143
-2.7857144 6.5 157.07143
-2.7857144 8.357142 157.07143
-2.7857144 10.214286 157.07143
-2.7857144 12.071428 157.07143
-2.7857144 13.928572 157.07143
-2.7857144 15.785714 157.07143
-2.7857144 -41.785713 155.21428
-2.7857144 -39.92857 155.21428
-2.7857144 -38.07143 155.21428
-2.7857144 -36.214287 155.21428
-2.7857144 -34.357143 155.21428
-2.7857144 -32.5 155.21428
-2.7857144 -30.642857 155.21428
-2.7857144 -28.785715 155.21428
-2.7857144 -26.928572 155.21428
-2.7857144 -25.071428 155.21428
-2.7857144 -23.214285 155.21428
-2.7857144 -21.357143 155.21428
-2.7857144 -19.5 155.21428
-2.7857144 -17.642857 155.21428
-2.7857144 -15.785714 155.21428
-2.7857144 -13.928572 155.21428
-2.7857144 -12.071428 155.21428
-2.7857144 -10.214286 155.21428
-2.7857144 -8.357142 155.21428
-2.7857144 -6.5 155.21428
-2.7857144 -4.642857 155.21428
-2.7857144 -2.7857144 155.21428
-2.7857144 -0.9285714 155.21428
-2.7857144 0.9285714 155.21428
-2.7857144 2.7857144 155.21428
-2.7857144 4.642857 155.21428
-2.7857144 6.5 155.21428
-2.7857144 8.357142 155.21428
-2.7857144 10.214286 155.21428
-2.7857144 12.071428 155.21428
-2.7857144 13.928572 155.21428
-2.7857144 -41.785713 153.35715
-2.7857144 -39.92857 153.35715
-2.7857144 -38.07143 153.35715
-2.7857144 -36.214287 153.35715
-2.7857144 -34.357143 153.35715
-2.7857144 -32.5 153.35715
-2.7857144 -30.642857 153.35715
-2.7857144 -28.785715 153.35715
-2.7857144 -26.928572 153.35715
-2.7857144 -25.071428 153.35715
-2.7857144 -23.214285 153.35715
-2.7857144 -21.357143 153.35715
-2.7857144 -19.5 153.35715
-2.7857144 -17.642857 153.35715
-2.7857144 -15.785714 153.35715
-2.7857144 -13.928572 153.35715
-2.7857144 -12.071428 153.35715
-2.7857144 -10.214286 153.35715
-2.7857144 -8.357142 153.35715
-2.7857144 -6.5 153.35715
-2.7857144 -4.642857 153.35715
-2.7857144 -2.7857144 153.35715
-2.7857144 -0.9285714 153.35715
-2.7857144 0.9285714 153.35715
-2.7857144 2.7857144 153.35715
-2.7857144 4.642857 153.35715
-2.7857144 6.5 153.35715
-2.7857144 8.357142 153.35715
-2.7857144 10.214286 153.35715
-2.7857144 -41.785713 151.5
-2.7857144 -39.92857 151.5
-2.7857144 -38.07143 151.5
-2.7857144 -36.214287 151.5
-2.7857144 -34.357143 151.5
-2.7857144 -32.5 151.5
-2.7857144 -30.642857 151.5
-2.7857144 -28.785715 151.5
-2.7857144 -26.928572 151.5
-2.7857144 -25.071428 151.5
-2.7857144 -23.214285 151.5
-2.7857144 -21.357143 151.5
-2.7857144 -19.5 151.5
-2.7857144 -17.642857 151.5
-2.7857144 -15.785714 151.5
-2.7857144 -13.928572 151.5
-2.7857144 -12.071428 151.5
-2.7857144 -10.214286 151.5
-2.7857144 -8.357142 151.5
-2.7857144 -6.5 151.5
-2.7857144 -4.642857 151.5
-2.7857144 -2.7857144 151.5
-2.7857144 -0.9285714 151.5
-2.7857144 0.9285714 151.5
-2.7857144 2.7857144 151.5
-2.7857144 4.642857 151.5
-2.7857144 6.5 151.5
-2.7857144 8.357142 151.5
-2.7857144 10.214286 151.5
-2.7857144 -39.92857 149.64285
-2.7857144 -38.07143 149.64285
-2.7857144 -36.214287 149.64285
-2.7857144 -34.357143 149.64285
-2.7857144 -32.5 149.64285
-2.7857144 -30.642857 149.64285
-2.7857144 -28.785715 149.64285
-2.7857144 -26.928572 149.64285
-2.7857144 -25.071428 149.64285
-2.7857144 -23.214285 149.64285
-2.7857144 -21.357143 149.64285
-2.7857144 -19.5 149.64285
-2.7857144 -17.642857 149.64285
-2.7857144 -15.785714 149.64285
-2.7857144 -13.928572 149.64285
-2.7857144 -12.071428 149.64285
-2.7857144 -10.214286 149.64285
-2.7857144 -8.357142 149.64285
-2.7857144 -6.5 149.64285
-2.7857144 -4.642857 149.64285
-2.7857144 -2.7857144 149.64285
-2.7857144 -0.9285714 149.64285
-2.7857144 0.9285714 149.64285
-2.7857144 2.7857144 149.64285
-2.7857144 4.642857 149.64285
-2.7857144 6.5 149.64285
-2.7857144 8.357142 149.64285
-2.7857144 10.214286 149.64285
-2.7857144 12.071428 149.64285
-2.7857144 -38.07143 147.78572
-2.7857144 -36.214287 147.78572
-2.7857144 -34.357143 147.78572
-2.7857144 -32.5 147.78572
-2.7857144 -30.642857 147.78572
-2.7857144 -28.785715 147.78572
-2.7857144 -26.928572 147.78572
-2.7857144 -25.071428 147.78572
-2.7857144 -23.214285 147.78572
-2.7857144 -21.357143 147.78572
-2.7857144 -19.5 147.78572
-2.7857144 -17.642857 147.78572
-2.7857144 -15.785714 147.78572
-2.7857144 -13.928572 147.78572
-2.7857144 -12.071428 147.78572
-2.7857144 -10.214286 147.78572
-2.7857144 -8.357142 147.78572
-2.7857144 -6.5 147.78572
-2.7857144 -4.642857 147.78572
-2.7857144 -2.7857144 147.78572
-2.7857144 -0.9285714 147.78572
-2.7857144 0.9285714 147.78572
-2.7857144 2.7857144 147.78572
-2.7857144 4.642857 147.78572
-2.7857144 6.5 147.78572
-2.7857144 8.357142 147.78572
-2.7857144 10.214286 147.78572
-2.7857144 12.071428 147.78572
-2.7857144 -36.214287 145.92857
-2.7857144 -34.357143 145.92857
-2.7857144 -32.5 145.92857
-2.7857144 -30.642857 145.92857
-2.7857144 -28.785715 145.92857
-2.7857144 -26.928572 145.92857
-2.7857144 -25.071428 145.92857
-2.7857144 -23.214285 145.92857
-2.7857144 -21.357143 145.92857
-2.7857144 -19.5 145.92857
-2.7857144 -17.642857 145.92857
-2.7857144 -15.785714 145.92857
-2.7857144 -13.928572 145.92857
-2.7857144 -12.071428 145.92857
-2.7857144 -10.214286 145.92857
-2.7857144 -8.357142 145.92857
-2.7857144 -6.5 145.92857
-2.7857144 -4.642857 145.92857
-2.7857144 -2.7857144 145.92857
-2.7857144 -0.9285714 145.92857
-2.7857144 0.9285714 145.92857
-2.7857144 2.7857144 145.92857
-2.7857144 4.642857 145.92857
-2.7857144 6.5 145.92857
-2.7857144 8.357142 145.92857
-2.7857144 10.214286 145.92857
-2.7857144 12.071428 145.92857
-2.7857144 13.928572 145.92857
-2.7857144 -34.357143 144.07143
-2.7857144 -32.5 144.07143
-2.7857144 -30.642857 144.07143
-2.7857144 -28.785715 144.07143
-2.7857144 -26.928572 144.07143
-2.7857144 -25.071428 144.07143
-2.7857144 -23.214285 144.07143
-2.7857144 -21.357143 144.07143
-2.7857144 -19.5 144.07143
-2.7857144 -17.642857 144.07143
-2.7857144 -15.785714 144.07143
-2.7857144 -13.928572 144.07143
-2.7857144 -12.071428 144.07143
-2.7857144 -10.214286 144.07143
-2.7857144 -8.357142 144.07143
-2.7857144 -6.5 144.07143
-2.7857144 -4.642857 144.07143
-2.7857144 -2.7857144 144.07143
-2.7857144 -0.9285714 144.07143
-2.7857144 0.9285714 144.07143
-2.7857144 2.7857144 144.07143
-2.7857144 4.642857 144.07143
-2.7857144 6.5 144.07143
-2.7857144 8.357142 144.07143
-2.7857144 10.214286 144.07143
-2.7857144 12.071428 144.07143
-2.7857144 13.928572 144.07143
-2.7857144 -30.642857 142.21428
-2.7857144 -28.785715 142.21428
-2.7857144 -26.928572 142.21428
-2.7857144 -25.071428 142.21428
-2.7857144 -23.214285 142.21428
-2.7857144 -21.357143 142.21428
-2.7857144 -19.5 142.21428
-2.7857144 -17.642857 142.21428
-2.7857144 -15.785714 142.21428
-2.7857144 -13.928572 142.21428
-2.7857144 -12.071428 142.21428
-2.7857144 -10.214286 142.21428
-2.7857144 -8.357142 142.21428
-2.7857144 -6.5 142.21428
-2.7857144 -4.642857 142.21428
-2.7857144 -2.7857144 142.21428
-2.7857144 -0.9285714 142.21428
-2.7857144 0.9285714 142.21428
-2.7857144 2.7857144 142.21428
-2.7857144 4.642857 142.21428
-2.7857144 6.5 142.21428
-2.7857144 8.357142 142.21428
-2.7857144 10.214286 142.21428
-2.7857144 12.071428 142.21428
-2.7857144 13.928572 142.21428
-2.7857144 -28.785715 140.35715
-2.7857144 -26.928572 140.35715
-2.7857144 -25.071428 140.35715
-2.7857144 -23.214285 140.35715
-2.7857144 -21.357143 140.35715
-2.7857144 -19.5 140.35715
-2.7857144 -17.642857 140.35715
-2.7857144 -15.785714 140.35715
-2.7857144 -13.928572 140.35715
-2.7857144 -12.071428 140.35715
-2.7857144 -10.214286 140.35715
-2.7857144 -8.357142 140.35715
-2.7857144 -6.5 140.35715
-2.7857144 -4.642857 140.35715
-2.7857144 -2.7857144 140.35715
-2.7857144 -0.9285714 140.35715
-2.7857144 0.9285714 140.35715
-2.7857144 2.7857144 140.35715
-2.7857144 4.642857 140.35715
-2.7857144 6.5 140.35715
-2.7857144 8.357142 140.35715
-2.7857144 10.214286 140.35715
-2.7857144 12.071428 140.35715
-2.7857144 13.928572 140.35715
-2.7857144 -26.928572 138.5
-2.7857144 -25.071428 138.5
-2.7857144 -23.214285 138.5
-2.7857144 -21.357143 138.5
-2.7857144 -19.5 138.5
-2.7857144 -17.642857 138.5
-2.7857144 -15.785714 138.5
-2.7857144 -13.928572 138.5
-2.7857144 -12.071428 138.5
-2.7857144 -10.214286 138.5
-2.7857144 -8.357142 138.5
-2.7857144 -6.5 138.5
-2.7857144 -4.642857 138.5
-2.7857144 -2.7857144 138.5
-2.7857144 -0.9285714 138.5
-2.7857144 0.9285714 138.5
-2.7857144 2.7857144 138.5
-2.7857144 4.642857 138.5
-2.7857144 6.5 138.5
-2.7857144 8.357142 138.5
-2.7857144 10.214286 138.5
-2.7857144 12.071428 138.5
-2.7857144 13.928572 138.5
-2.7857144 -25.071428 136.64285
-2.7857144 -23.214285 136.64285
-2.7857144 -21.357143 136.64285
-2.7857144 -19.5 136.64285
-2.7857144 -17.642857 136.64285
-2.7857144 -15.785714 136.64285
-2.7857144 -13.928572 136.64285
-2.7857144 -12.071428 136.64285
-2.7857144 -10.214286 136.64285
-2.7857144 -8.357142 136.64285
-2.7857144 -6.5 136.64285
-2.7857144 -4.642857 136.64285
-2.7857144 -2.7857144 136.64285
-2.7857144 -0.9285714 136.64285
-2.7857144 0.9285714 136.64285
-2.7857144 2.7857144 136.64285
-2.7857144 4.642857 136.64285
-2.7857144 6.5 136.64285
-2.7857144 8.357142 136.64285
-2.7857144 10.214286 136.64285
-2.7857144 12.071428 136.64285
-2.7857144 13.928572 136.64285
-2.7857144 -25.071428 134.78572
-2.7857144 -23.214285 134.78572
-2.7857144 -21.357143 134.78572
-2.7857144 -19.5 134.78572
-2.7857144 -17.642857 134.78572
-2.7857144 -15.785714 134.78572
-2.7857144 -13.928572 134.78572
-2.7857144 -12.071428 134.78572
-2.7857144 -10.214286 134.78572
-2.7857144 -8.357142 134.78572
-2.7857144 -6.5 134.78572
-2.7857144 -4.642857 134.78572
-2.7857144 -2.7857144 134.78572
-2.7857144 -0.9285714 134.78572
-2.7857144 0.9285714 134.78572
-2.7857144 2.7857144 134.78572
-2.7857144 4.642857 134.78572
-2.7857144 6.5 134.78572
-2.7857144 8.357142 134.78572
-2.7857144 10.214286 134.78572
-2.7857144 12.071428 134.78572
-2.7857144 -25.071428 132.92857
-2.7857144 -23.214285 132.92857
-2.7857144 -21.357143 132.92857
-2.7857144 -19.5 132.92857
-2.7857144 -17.642857 132.92857
-2.7857144 -15.785714 132.92857
-2.7857144 -13.928572 132.92857
-2.7857144 -12.071428 132.92857
-2.7857144 -10.214286 132.92857
-2.7857144 -8.357142 132.92857
-2.7857144 -6.5 132.92857
-2.7857144 -4.642857 132.92857
-2.7857144 -2.7857144 132.92857
-2.7857144 -0.9285714 132.92857
-2.7857144 0.9285714 132.92857
-2.7857144 2.7857144 132.92857
-2.7857144 4.642857 132.92857
-2.7857144 6.5 132.92857
-2.7857144 8.357142 132.92857
-2.7857144 10.214286 132.92857
-2.7857144 12.071428 132.92857
-2.7857144 13.928572 132.92857
-2.7857144 -25.071428 131.07143
-2.7857144 -23.214285 131.07143
-2.7857144 -21.357143 131.07143
-2.7857144 -19.5 131.07143
-2.7857144 -17.642857 131.07143
-2.7857144 -15.785714 131.07143
-2.7857144 -13.928572 131.07143
-2.7857144 -12.071428 131.07143
-2.7857144 -10.214286 131.07143
-2.7857144 -8.357142 131.07143
-2.7857144 -6.5 131.07143
-2.7857144 -4.642857 131.07143
-2.7857144 -2.7857144 131.07143
-2.7857144 -0.9285714 131.07143
-2.7857144 0.9285714 131.07143
-2.7857144 2.7857144 131.07143
-2.7857144 4.642857 131.07143
-2.7857144 6.5 131.07143
-2.7857144 8.357142 131.07143
-2.7857144 10.214286 131.07143
-2.7857144 12.071428 131.07143
-2.7857144 13.928572 131.07143
-2.7857144 -25.071428 129.21428
-2.7857144 -23.214285 129.21428
-2.7857144 -21.357143 129.21428
-2.7857144 -19.5 129.21428
-2.7857144 -17.642857 129.21428
-2.7857144 -15.785714 129.21428
-2.7857144 -13.928572 129.21428
-2.7857144 -12.071428 129.21428
-2.7857144 -10.214286 129.21428
-2.7857144 -8.357142 129.21428
-2.7857144 -6.5 129.21428
-2.7857144 -4.642857 129.21428
-2.7857144 -2.7857144 129.21428
-2.7857144 -0.9285714 129.21428
-2.7857144 0.9285714 129.21428
-2.7857144 2.7857144 129.21428
-2.7857144 4.642857 129.21428
-2.7857144 6.5 129.21428
-2.7857144 8.357142 129.21428
-2.7857144 10.214286 129.21428
-2.7857144 12.071428 129.21428
-2.7857144 13.928572 129.21428
-2.7857144 -26.928572 127.35714
-2.7857144 -25.071428 127.35714
-2.7857144 -23.214285 127.35714
-2.7857144 -21.357143 127.35714
-2.7857144 -19.5 127.35714
-2.7857144 -17.642857 127.35714
-2.7857144 -15.785714 127.35714
-2.7857144 -13.928572 127.35714
-2.7857144 -12.071428 127.35714
-2.7857144 -10.214286 127.35714
-2.7857144 -8.357142 127.35714
-2.7857144 -6.5 127.35714
-2.7857144 -4.642857 127.35714
-2.7857144 -2.7857144 127.35714
-2.7857144 -0.9285714 127.35714
-2.7857144 0.9285714 127.35714
-2.7857144 2.7857144 127.35714
-2.7857144 4.642857 127.35714
-2.7857144 6.5 127.35714
-2.7857144 8.357142 127.35714
-2.7857144 10.214286 127.35714
-2.7857144 12.071428 127.35714
-2.7857144 13.928572 127.35714
-2.7857144 15.785714 127.35714
-2.7857144 -26.928572 125.5
-2.7857144 -25.071428 125.5
-2.7857144 -23.214285 125.5
-2.7857144 -21.357143 125.5
-2.7857144 -19.5 125.5
-2.7857144 -17.642857 125.5
-2.7857144 -15.785714 125.5
-2.7857144 -13.928572 125.5
-2.7857144 -12.071428 125.5
-2.7857144 -10.214286 125.5
-2.7857144 -8.357142 125.5
-2.7857144 -6.5 125.5
-2.7857144 -4.642857 125.5
-2.7857144 -2.7857144 125.5
-2.7857144 -0.9285714 125.5
-2.7857144 0.9285714 125.5
-2.7857144 2.7857144 125.5
-2.7857144 4.642857 125.5
-2.7857144 6.5 125.5
-2.7857144 8.357142 125.5
-2.7857144 10.214286 125.5
-2.7857144 12.071428 125.5
-2.7857144 13.928572 125.5
-2.7857144 15.785714 125.5
-2.7857144 17.642857 125.5
-2.7857144 -26.928572 123.64286
-2.7857144 -25.071428 123.64286
-2.7857144 -23.214285 123.64286
-2.7857144 -21.357143 123.64286
-2.7857144 -19.5 123.64286
-2.7857144 -17.642857 123.64286
-2.7857144 -15.785714 123.64286
-2.7857144 -13.928572 123.64286
-2.7857144 -12.071428 123.64286
-2.7857144 -10.214286 123.64286
-2.7857144 -8.357142 123.64286
-2.7857144 -6.5 123.64286
-2.7857144 -4.642857 123.64286
-2.7857144 -2.7857144 123.64286
-2.7857144 -0.9285714 123.64286
-2.7857144 0.9285714 123.64286
-2.7857144 2.7857144 123.64286
-2.7857144 4.642857 123.64286
-2.7857144 6.5 123.64286
-2.7857144 8.357142 123.64286
-2.7857144 10.214286 123.64286
-2.7857144 12.071428 123.64286
-2.7857144 13.928572 123.64286
-2.7857144 15.785714 123.64286
-2.7857144 17.642857 123.64286
-2.7857144 19.5 123.64286
-2.7857144 -28.785715 121.78571
-2.7857144 -26.928572 121.78571
-2.7857144 -25.071428 121.78571
-2.7857144 -23.214285 121.78571
-2.7857144 -21.357143 121.78571
-2.7857144 -19.5 121.78571
-2.7857144 -17.642857 121.78571
-2.7857144 -15.785714 121.78571
-2.7857144 -13.928572 121.78571
-2.7857144 -12.071428 121.78571
-2.7857144 -10.214286 121.78571
-2.7857144 -8.357142 121.78571
-2.7857144 -6.5 121.78571
-2.7857144 -4.642857 121.78571
-2.7857144 -2.7857144 121.78571
-2.7857144 -0.9285714 121.78571
-2.7857144 0.9285714 121.78571
-2.7857144 2.7857144 121.78571
-2.7857144 4.642857 121.78571
-2.7857144 6.5 121.78571
-2.7857144 8.357142 121.78571
-2.7857144 10.214286 121.78571
-2.7857144 12.071428 121.78571
-2.7857144 13.928572 121.78571
-2.7857144 15.785714 121.78571
-2.7857144 17.642857 121.78571
-2.7857144 19.5 121.78571
-2.7857144 21.357143 121.78571
-2.7857144 -28.785715 119.92857
-2.7857144 -26.928572 119.92857
-2.7857144 -25.071428 119.92857
-2.7857144 -23.214285 119.92857
-2.7857144 -21.357143 119.92857
-2.7857144 -19.5 119.92857
-2.7857144 -17.642857 119.92857
-2.7857144 -15.785714 119.92857
-2.7857144 -13.928572 119.92857
-2.7857144 -12.071428 119.92857
-2.7857144 -10.214286 119.92857
-2.7857144 -8.357142 119.92857
-2.7857144 -6.5 119.92857
-2.7857144 -4.642857 119.92857
-2.7857144 -2.7857144 119.92857
-2.7857144 -0.9285714 119.92857
-2.7857144 0.9285714 119.92857
-2.7857144 2.7857144 119.92857
-2.7857144 4.642857 119.92857
-2.7857144 6.5 119.92857
-2.7857144 8.357142 119.92857
-2.7857144 10.214286 119.92857
-2.7857144 12.071428 119.92857
-2.7857144 13.928572 119.92857
-2.7857144 15.785714 119.92857
-2.7857144 17.642857 119.92857
-2.7857144 19.5 119.92857
-2.7857144 21.357143 119.92857
-2.7857144 23.214285 119.92857
-2.7857144 -28.785715 118.07143
-2.7857144 -26.928572 118.07143
-2.7857144 -25.071428 118.07143
-2.7857144 -23.214285 118.07143
-2.7857144 -21.357143 118.07143
-2.7857144 -19.5 118.07143
-2.7857144 -17.642857 118.07143
-2.7857144 -15.785714 118.07143
-2.7857144 -13.928572 118.07143
-2.7857144 -12.071428 118.07143
-2.7857144 -10.214286 118.07143
-2.7857144 -8.357142 118.07143
-2.7857144 -6.5 118.07143
-2.7857144 -4.642857 118.07143
-2.7857144 -2.7857144 118.07143
-2.7857144 -0.9285714 118.07143
-2.7857144 0.9285714 118.07143
-2.7857144 2.7857144 118.07143
-2.7857144 4.642857 118.07143
-2.7857144 6.5 118.07143
-2.7857144 8.357142 118.07143
-2.7857144 10.214286 118.07143
-2.7857144 12.071428 118.07143
-2.7857144 13.928572 118.07143
-2.7857144 15.785714 118.07143
-2.7857144 17.642857 118.07143
-2.7857144 19.5 118.07143
-2.7857144 21.357143 118.07143
-2.7857144 23.214285 118.07143
-2.7857144 25.071428 118.07143
-2.7857144 -28.785715 116.21429
-2.7857144 -26.928572 116.21429
-2.7857144 -25.071428 116.21429
-2.7857144 -23.214285 116.21429
-2.7857144 -21.357143 116.21429
-2.7857144 -19.5 116.21429
-2.7857144 -17.642857 116.21429
-2.7857144 -15.785714 116.21429
-2.7857144 -13.928572 116.21429
-2.7857144 -12.071428 116.21429
-2.7857144 -10.214286 116.21429
-2.7857144 -8.357142 116.21429
-2.7857144 -6.5 116.21429
-2.7857144 -4.642857 116.21429
-2.7857144 -2.7857144 116.21429
-2.7857144 -0.9285714 116.21429
-2.7857144 0.9285714 116.21429
-2.7857144 2.7857144 116.21429
-2.7857144 4.642857 116.21429
-2.7857144 6.5 116.21429
-2.7857144 8.357142 116.21429
-2.7857144 10.214286 116.21429
-2.7857144 12.071428 116.21429
-2.7857144 13.928572 116.21429
-2.7857144 15.785714 116.21429
-2.7857144 17.642857 116.21429
-2.7857144 19.5 116.21429
-2.7857144 21.357143 116.21429
-2.7857144 23.214285 116.21429
-2.7857144 25.071428 116.21429
-2.7857144 26.928572 116.21429
-2.7857144 -26.928572 114.35714
-2.7857144 -25.071428 114.35714
-2.7857144 -23.214285 114.35714
-2.7857144 -21.357143 114.35714
-2.7857144 -19.5 114.35714
-2.7857144 -17.642857 114.35714
-2.7857144 -15.785714 114.35714
-2.7857144 -13.928572 114.35714
-2.7857144 -12.071428 114.35714
-2.7857144 -10.214286 114.35714
-2.7857144 -8.357142 114.35714
-2.7857144 -6.5 114.35714
-2.7857144 -4.642857 114.35714
-2.7857144 -2.7857144 114.35714
-2.7857144 -0.9285714 114.35714
-2.7857144 0.9285714 114.35714
-2.7857144 2.7857144 114.35714
-2.7857144 4.642857 114.35714
-2.7857144 6.5 114.35714
-2.7857144 8.357142 114.35714
-2.7857144 10.214286 114.35714
-2.7857144 12.071428 114.35714
-2.7857144 13.928572 114.35714
-2.7857144 15.785714 114.35714
-2.7857144 17.642857 114.35714
-2.7857144 19.5 114.35714
-2.7857144 21.357143 114.35714
-2.7857144 23.214285 114.35714
-2.7857144 25.071428 114.35714
-2.7857144 26.928572 114.35714
-2.7857144 28.785715 114.35714
-2.7857144 -26.928572 112.5
-2.7857144 -25.071428 112.5
-2.7857144 -23.214285 112.5
-2.7857144 -21.357143 112.5
-2.7857144 -19.5 112.5
-2.7857144 -17.642857 112.5
-2.7857144 -15.785714 112.5
-2.7857144 -13.928572 112.5
-2.7857144 -12.071428 112.5
-2.7857144 -10.214286 112.5
-2.7857144 -8.357142 112.5
-2.7857144 -6.5 112.5
-2.7857144 -4.642857 112.5
-2.7857144 -2.7857144 112.5
-2.7857144 -0.9285714 112.5
-2.7857144 0.9285714 112.5
-2.7857144 2.7857144 112.5
-2.7857144 4.642857 112.5
-2.7857144 6.5 112.5
-2.7857144 8.357142 112.5
-2.7857144 10.214286 112.5
-2.7857144 12.071428 112.5
-2.7857144 13.928572 112.5
-2.7857144 15.785714 112.5
-2.7857144 17.642857 112.5
-2.7857144 19.5 112.5
-2.7857144 21.357143 112.5
-2.7857144 23.214285 112.5
-2.7857144 25.071428 112.5
-2.7857144 26.928572 112.5
-2.7857144 28.785715 112.5
-2.7857144 30.642857 112.5
-2.7857144 -26.928572 110.64286
-2.7857144 -25.071428 110.64286
-2.7857144 -23.214285 110.64286
-2.7857144 -21.357143 110.64286
-2.7857144 -19.5 110.64286
-2.7857144 -17.642857 110.64286
-2.7857144 -15.785714 110.64286
-2.7857144 -13.928572 110.64286
-2.7857144 -12.071428 110.64286
-2.7857144 -10.214286 110.64286
-2.7857144 -8.357142 110.64286
-2.7857144 -6.5 110.64286
-2.7857144 -4.642857 110.64286
-2.7857144 -2.7857144 110.64286
-2.7857144 -0.9285714 110.64286
-2.7857144 0.9285714 110.64286
-2.7857144 2.7857144 110.64286
-2.7857144 4.642857 110.64286
-2.7857144 6.5 110.64286
-2.7857144 8.357142 110.64286
-2.7857144 10.214286 110.64286
-2.7857144 12.071428 110.64286
-2.7857144 13.928572 110.64286
-2.7857144 15.785714 110.64286
-2.7857144 17.642857 110.64286
-2.7857144 19.5 110.64286
-2.7857144 21.357143 110.64286
-2.7857144 23.214285 110.64286
-2.7857144 25.071428 110.64286
-2.7857144 26.928572 110.64286
-2.7857144 28.785715 110.64286
-2.7857144 30.642857 110.64286
-2.7857144 -26.928572 108.78571
-2.7857144 -25.071428 108.78571
-2.7857144 -23.214285 108.78571
-2.7857144 -21.357143 108.78571
-2.7857144 -19.5 108.78571
-2.7857144 -17.642857 108.78571
-2.7857144 -15.785714 108.78571
-2.7857144 -13.928572 108.78571
-2.7857144 -12.071428 108.78571
-2.7857144 -10.214286 108.78571
-2.7857144 -8.357142 108.78571
-2.7857144 -6.5 108.78571
-2.7857144 -4.642857 108.78571
-2.7857144 -2.7857144 108.78571
-2.7857144 -0.9285714 108.78571
-2.7857144 0.9285714 108.78571
-2.7857144 2.7857144 108.78571
-2.7857144 4.642857 108.78571
-2.7857144 6.5 108.78571
-2.7857144 8.357142 108.78571
-2.7857144 10.214286 108.78571
-2.7857144 12.071428 108.78571
-2.7857144 13.928572 108.78571
-2.7857144 15.785714 108.78571
-2.7857144 17.642857 108.78571
-2.7857144 19.5 108.78571
-2.7857144 21.357143 108.78571
-2.7857144 23.214285 108.78571
-2.7857144 25.071428 108.78571
-2.7857144 26.928572 108.78571
-2.7857144 28.785715 108.78571
-2.7857144 30.642857 108.78571
-2.7857144 32.5 108.78571
-2.7857144 -25.071428 106.92857
-2.7857144 -23.214285 106.92857
-2.7857144 -21.357143 106.92857
-2.7857144 -19.5 106.92857
-2.7857144 -17.642857 106.92857
-2.7857144 -15.785714 106.92857
-2.7857144 -13.928572 106.92857
-2.7857144 -12.071428 106.92857
-2.7857144 -10.214286 106.92857
-2.7857144 -8.357142 106.92857
-2.7857144 -6.5 106.92857
-2.7857144 -4.642857 106.92857
-2.7857144 -2.7857144 106.92857
-2.7857144 -0.9285714 106.92857
-2.7857144 0.9285714 106.92857
-2.7857144 2.7857144 106.92857
-2.7857144 4.642857 106.92857
-2.7857144 6.5 106.92857
-2.7857144 8.357142 106.92857
-2.7857144 10.214286 106.92857
-2.7857144 12.071428 106.92857
-2.7857144 13.928572 106.92857
-2.7857144 15.785714 106.92857
-2.7857144 17.642857 106.92857
-2.7857144 19.5 106.92857
-2.7857144 21.357143 106.92857
-2.7857144 23.214285 106.92857
-2.7857144 25.071428 106.92857
-2.7857144 26.928572 106.92857
-2.7857144 28.785715 106.92857
-2.7857144 30.642857 106.92857
-2.7857144 32.5 106.92857
-2.7857144 34.357143 106.92857
-2.7857144 -25.071428 105.07143
-2.7857144 -23.214285 105.07143
-2.7857144 -21.357143 105.07143
-2.7857144 -19.5 105.07143
-2.7857144 -17.642857 105.07143
-2.7857144 -15.785714 105.07143
-2.7857144 -13.928572 105.07143
-2.7857144 -12.071428 105.07143
-2.7857144 -10.214286 105.07143
-2.7857144 -8.357142 105.07143
-2.7857144 -6.5 105.07143
-2.7857144 -4.642857 105.07143
-2.7857144 -2.7857144 105.07143
-2.7857144 -0.9285714 105.07143
-2.7857144 0.9285714 105.07143
-2.7857144 2.7857144 105.07143
-2.7857144 4.642857 105.07143
-2.7857144 6.5 105.07143
-2.7857144 8.357142 105.07143
-2.7857144 10.214286 105.07143
-2.7857144 12.071428 105.07143
-2.7857144 13.928572 105.07143
-2.7857144 15.785714 105.07143
-2.7857144 17.642857 105.07143
-2.7857144 19.5 105.07143
-2.7857144 21.357143 105.07143
-2.7857144 23.214285 105.07143
-2.7857144 25.071428 105.07143
-2.7857144 26.928572 105.07143
-2.7857144 28.785715 105.07143
-2.7857144 30.642857 105.07143
-2.7857144 32.5 105.07143
-2.7857144 34.357143 105.07143
-2.7857144 -23.214285 103.21429
-2.7857144 -21.357143 103.21429
-2.7857144 -19.5 103.21429
-2.7857144 -17.642857 103.21429
-2.7857144 -15.785714 103.21429
-2.7857144 -13.928572 103.21429
-2.7857144 -12.071428 103.21429
-2.7857144 -10.214286 103.21429
-2.7857144 -8.357142 103.21429
-2.7857144 -6.5 103.21429
-2.7857144 -4.642857 103.21429
-2.7857144 -2.7857144 103.21429
-2.7857144 -0.9285714 103.21429
-2.7857144 0.9285714 103.21429
-2.7857144 2.7857144 103.21429
-2.7857144 4.642857 103.21429
-2.7857144 6.5 103.21429
-2.7857144 8.357142 103.21429
-2.7857144 10.214286 103.21429
-2.7857144 12.071428 103.21429
-2.7857144 13.928572 103.21429
-2.7857144 15.785714 103.21429
-2.7857144 17.642857 103.21429
-2.7857144 19.5 103.21429
-2.7857144 21.357143 103.21429
-2.7857144 23.214285 103.21429
-2.7857144 25.071428 103.21429
-2.7857144 26.928572 103.21429
-2.7857144 28.785715 103.21429
-2.7857144 30.642857 103.21429
-2.7857144 32.5 103.21429
-2.7857144 34.357143 103.21429
-2.7857144 36.214287 103.21429
-2.7857144 -23.214285 101.35714
-2.7857144 -21.357143 101.35714
-2.7857144 -19.5 101.35714
-2.7857144 -17.642857 101.35714
-2.7857144 -15.785714 101.35714
-2.7857144 -13.928572 101.35714
-2.7857144 -12.071428 101.35714
-2.7857144 -10.214286 101.35714
-2.7857144 -8.357142 101.35714
-2.7857144 -6.5 101.35714
-2.7857144 -4.642857 101.35714
-2.7857144 -2.7857144 101.35714
-2.7857144 -0.9285714 101.35714
-2.7857144 0.9285714 101.35714
-2.7857144 2.7857144 101.35714
-2.7857144 4.642857 101.35714
-2.7857144 6.5 101.35714
-2.7857144 8.357142 101.35714
-2.7857144 10.214286 101.35714
-2.7857144 12.071428 101.35714
-2.7857144 13.928572 101.35714
-2.7857144 15.785714 101.35714
-2.7857144 17.642857 101.35714
-2.7857144 19.5 101.35714
-2.7857144 21.357143 101.35714
-2.7857144 23.214285 101.35714
-2.7857144 25.071428 101.35714
-2.7857144 26.928572 101.35714
-2.7857144 28.785715 101.35714
-2.7857144 30.642857 101.35714
-2.7857144 32.5 101.35714
-2.7857144 34.357143 101.35714
-2.7857144 36.214287 101.35714
-2.7857144 -21.357143 99.5
-2.7857144 -19.5 99.5
-2.7857144 -17.642857 99.5
-2.7857144 -15.785714 99.5
-2.7857144 -13.928572 99.5
-2.7857144 -12.071428 99.5
-2.7857144 -10.214286 99.5
-2.7857144 -8.357142 99.5
-2.7857144 -6.5 99.5
-2.7857144 -4.642857 99.5
-2.7857144 -2.7857144 99.5
-2.7857144 -0.9285714 99.5
-2.7857144 0.9285714 99.5
-2.7857144 2.7857144 99.5
