ply
format ascii 1.0
element vertex 1692
property float x
property float y
property float z
end_header
-3.4285715 10.285714 136.0
-3.4285715 12.571428 136.0
-3.4285715 -24.0 133.71428
-3.4285715 -21.714285 133.71428
-3.4285715 -19.428572 133.71428
-3.4285715 -17.142857 133.71428
-3.4285715 -14.857142 133.71428
-3.4285715 -12.571428 133.71428
-3.4285715 -10.285714 133.71428
-3.4285715 -8.0 133.71428
-3.4285715 -5.714286 133.71428
-3.4285715 -3.4285715 133.71428
-3.4285715 -1.1428572 133.71428
-3.4285715 1.1428572 133.71428
-3.4285715 3.4285715 133.71428
-3.4285715 5.714286 133.71428
-3.4285715 8.0 133.71428
-3.4285715 10.285714 133.71428
-3.4285715 12.571428 133.71428
-3.4285715 -24.0 131.42857
-3.4285715 -21.714285 131.42857
-3.4285715 -19.428572 131.42857
-3.4285715 -17.142857 131.42857
-3.4285715 -14.857142 131.42857
-3.4285715 -12.571428 131.42857
-3.4285715 -10.285714 131.42857
-3.4285715 -8.0 131.42857
-3.4285715 -5.714286 131.42857
-3.4285715 -3.4285715 131.42857
-3.4285715 -1.1428572 131.42857
-3.4285715 1.1428572 131.42857
-3.4285715 3.4285715 131.42857
-3.4285715 5.714286 131.42857
-3.4285715 8.0 131.42857
-3.4285715 10.285714 131.42857
-3.4285715 12.571428 131.42857
-3.4285715 -26.285715 129.14285
-3.4285715 -24.0 129.14285
-3.4285715 -21.714285 129.14285
-3.4285715 -19.428572 129.14285
-3.4285715 -17.142857 129.14285
-3.4285715 -14.857142 129.14285
-3.4285715 -12.571428 129.14285
-3.4285715 -10.285714 129.14285
-3.4285715 -8.0 129.14285
-3.4285715 -5.714286 129.14285
-3.4285715 -3.4285715 129.14285
-3.4285715 -1.1428572 129.14285
-3.4285715 1.1428572 129.14285
-3.4285715 3.4285715 129.14285
-3.4285715 5.714286 129.14285
-3.4285715 8.0 129.14285
-3.4285715 10.285714 129.14285
-3.4285715 12.571428 129.14285
-3.4285715 -26.285715 126.85714
-3.4285715 -24.0 126.85714
-3.4285715 -21.714285 126.85714
-3.4285715 -19.428572 126.85714
-3.4285715 -17.142857 126.85714
-3.4285715 -14.857142 126.85714
-3.4285715 -12.571428 126.85714
-3.4285715 -10.285714 126.85714
-3.4285715 -8.0 126.85714
-3.4285715 -5.714286 126.85714
-3.4285715 -3.4285715 126.85714
-3.4285715 -1.1428572 126.85714
-3.4285715 1.1428572 126.85714
-3.4285715 3.4285715 126.85714
-3.4285715 5.714286 126.85714
-3.4285715 8.0 126.85714
-3.4285715 10.285714 126.85714
-3.4285715 12.571428 126.85714
-3.4285715 14.857142 126.85714
-3.4285715 -26.285715 124.57143
-3.4285715 -24.0 124.57143
-3.4285715 -21.714285 124.57143
-3.4285715 -19.428572 124.57143
-3.4285715 -17.142857 124.57143
-3.4285715 -14.857142 124.57143
-3.4285715 -12.571428 124.57143
-3.4285715 -10.285714 124.57143
-3.4285715 -8.0 124.57143
-3.4285715 -5.714286 124.57143
-3.4285715 -3.4285715 124.57143
-3.4285715 -1.1428572 124.57143
-3.4285715 1.1428572 124.57143
-3.4285715 3.4285715 124.57143
-3.4285715 5.714286 124.57143
-3.4285715 8.0 124.57143
-3.4285715 10.285714 124.57143
-3.4285715 12.571428 124.57143
-3.4285715 14.857142 124.57143
-3.4285715 17.142857 124.57143
-3.4285715 -28.571428 122.28571
-3.4285715 -26.285715 122.28571
-3.4285715 -24.0 122.28571
-3.4285715 -21.714285 122.28571
-3.4285715 -19.428572 122.28571
-3.4285715 -17.142857 122.28571
-3.4285715 -14.857142 122.28571
-3.4285715 -12.571428 122.28571
-3.4285715 -10.285714 122.28571
-3.4285715 -8.0 122.28571
-3.4285715 -5.714286 122.28571
-3.4285715 -3.4285715 122.28571
-3.4285715 -1.1428572 122.28571
-3.4285715 1.1428572 122.28571
-3.4285715 3.4285715 122.28571
-3.4285715 5.714286 122.28571
-3.4285715 8.0 122.28571
-3.4285715 10.285714 122.28571
-3.4285715 12.571428 122.28571
-3.4285715 14.857142 122.28571
-3.4285715 17.142857 122.28571
-3.4285715 19.428572 122.28571
-3.4285715 -28.571428 120.0
-3.4285715 -26.285715 120.0
-3.4285715 -24.0 120.0
-3.4285715 -21.714285 120.0
-3.4285715 -19.428572 120.0
-3.4285715 -17.142857 120.0
-3.4285715 -14.857142 120.0
-3.4285715 -12.571428 120.0
-3.4285715 -10.285714 120.0
-3.4285715 -8.0 120.0
-3.4285715 -5.714286 120.0
-3.4285715 -3.4285715 120.0
-3.4285715 -1.1428572 120.0
-3.4285715 1.1428572 120.0
-3.4285715 3.4285715 120.0
-3.4285715 5.714286 120.0
-3.4285715 8.0 120.0
-3.4285715 10.285714 120.0
-3.4285715 12.571428 120.0
-3.4285715 14.857142 120.0
-3.4285715 17.142857 120.0
-3.4285715 19.428572 120.0
-3.4285715 21.714285 120.0
-3.4285715 -28.571428 117.71429
-3.4285715 -26.285715 117.71429
-3.4285715 -24.0 117.71429
-3.4285715 -21.714285 117.71429
-3.4285715 -19.428572 117.71429
-3.4285715 -17.142857 117.71429
-3.4285715 -14.857142 117.71429
-3.4285715 -12.571428 117.71429
-3.4285715 -10.285714 117.71429
-3.4285715 -8.0 117.71429
-3.4285715 -5.714286 117.71429
-3.4285715 -3.4285715 117.71429
-3.4285715 -1.1428572 117.71429
-3.4285715 1.1428572 117.71429
-3.4285715 3.4285715 117.71429
-3.4285715 5.714286 117.71429
-3.4285715 8.0 117.71429
-3.4285715 10.285714 117.71429
-3.4285715 12.571428 117.71429
-3.4285715 14.857142 117.71429
-3.4285715 17.142857 117.71429
-3.4285715 19.428572 117.71429
-3.4285715 21.714285 117.71429
-3.4285715 24.0 117.71429
-3.4285715 26.285715 117.71429
-3.4285715 -28.571428 115.42857
-3.4285715 -26.285715 115.42857
-3.4285715 -24.0 115.42857
-3.4285715 -21.714285 115.42857
-3.4285715 -19.428572 115.42857
-3.4285715 -17.142857 115.42857
-3.4285715 -14.857142 115.42857
-3.4285715 -12.571428 115.42857
-3.4285715 -10.285714 115.42857
-3.4285715 -8.0 115.42857
-3.4285715 -5.714286 115.42857
-3.4285715 -3.4285715 115.42857
-3.4285715 -1.1428572 115.42857
-3.4285715 1.1428572 115.42857
-3.4285715 3.4285715 115.42857
-3.4285715 5.714286 115.42857
-3.4285715 8.0 115.42857
-3.4285715 10.285714 115.42857
-3.4285715 12.571428 115.42857
-3.4285715 14.857142 115.42857
-3.4285715 17.142857 115.42857
-3.4285715 19.428572 115.42857
-3.4285715 21.714285 115.42857
-3.4285715 24.0 115.42857
-3.4285715 26.285715 115.42857
-3.4285715 -26.285715 113.14286
-3.4285715 -24.0 113.14286
-3.4285715 -21.714285 113.14286
-3.4285715 -19.428572 113.14286
-3.4285715 -17.142857 113.14286
-3.4285715 -14.857142 113.14286
-3.4285715 -12.571428 113.14286
-3.4285715 -10.285714 113.14286
-3.4285715 -8.0 113.14286
-3.4285715 -5.714286 113.14286
-3.4285715 -3.4285715 113.14286
-3.4285715 -1.1428572 113.14286
-3.4285715 1.1428572 113.14286
-3.4285715 3.4285715 113.14286
-3.4285715 5.714286 113.14286
-3.4285715 8.0 113.14286
-3.4285715 10.285714 113.14286
-3.4285715 12.571428 113.14286
-3.4285715 14.857142 113.14286
-3.4285715 17.142857 113.14286
-3.4285715 19.428572 113.14286
-3.4285715 21.714285 113.14286
-3.4285715 24.0 113.14286
-3.4285715 26.285715 113.14286
-3.4285715 28.571428 113.14286
-3.4285715 -26.285715 110.85714
-3.4285715 -24.0 110.85714
-3.4285715 -21.714285 110.85714
-3.4285715 -19.428572 110.85714
-3.4285715 -17.142857 110.85714
-3.4285715 -14.857142 110.85714
-3.4285715 -12.571428 110.85714
-3.4285715 -10.285714 110.85714
-3.4285715 -8.0 110.85714
-3.4285715 -5.714286 110.85714
-3.4285715 -3.4285715 110.85714
-3.4285715 -1.1428572 110.85714
-3.4285715 1.1428572 110.85714
-3.4285715 3.4285715 110.85714
-3.4285715 5.714286 110.85714
-3.4285715 8.0 110.85714
-3.4285715 10.285714 110.85714
-3.4285715 12.571428 110.85714
-3.4285715 14.857142 110.85714
-3.4285715 17.142857 110.85714
-3.4285715 19.428572 110.85714
-3.4285715 21.714285 110.85714
-3.4285715 24.0 110.85714
-3.4285715 26.285715 110.85714
-3.4285715 28.571428 110.85714
-3.4285715 30.857143 110.85714
-3.4285715 -26.285715 108.57143
-3.4285715 -24.0 108.57143
-3.4285715 -21.714285 108.57143
-3.4285715 -19.428572 108.57143
-3.4285715 -17.142857 108.57143
-3.4285715 -14.857142 108.57143
-3.4285715 -12.571428 108.57143
-3.4285715 -10.285714 108.57143
-3.4285715 -8.0 108.57143
-3.4285715 -5.714286 108.57143
-3.4285715 -3.4285715 108.57143
-3.4285715 -1.1428572 108.57143
-3.4285715 1.1428572 108.57143
-3.4285715 3.4285715 108.57143
-3.4285715 5.714286 108.57143
-3.4285715 8.0 108.57143
-3.4285715 10.285714 108.57143
-3.4285715 12.571428 108.57143
-3.4285715 14.857142 108.57143
-3.4285715 17.142857 108.57143
-3.4285715 19.428572 108.57143
-3.4285715 21.714285 108.57143
-3.4285715 24.0 108.57143
-3.4285715 26.285715 108.57143
-3.4285715 28.571428 108.57143
-3.4285715 30.857143 108.57143
-3.4285715 33.142857 108.57143
-3.4285715 -24.0 106.28571
-3.4285715 -21.714285 106.28571
-3.4285715 -19.428572 106.28571
-3.4285715 -17.142857 106.28571
-3.4285715 -14.857142 106.28571
-3.4285715 -12.571428 106.28571
-3.4285715 -10.285714 106.28571
-3.4285715 -8.0 106.28571
-3.4285715 -5.714286 106.28571
-3.4285715 -3.4285715 106.28571
-3.4285715 -1.1428572 106.28571
-3.4285715 1.1428572 106.28571
-3.4285715 3.4285715 106.28571
-3.4285715 5.714286 106.28571
-3.4285715 8.0 106.28571
-3.4285715 10.285714 106.28571
-3.4285715 12.571428 106.28571
-3.4285715 14.857142 106.28571
-3.4285715 17.142857 106.28571
-3.4285715 19.428572 106.28571
-3.4285715 21.714285 106.28571
-3.4285715 24.0 106.28571
-3.4285715 26.285715 106.28571
-3.4285715 28.571428 106.28571
-3.4285715 30.857143 106.28571
-3.4285715 33.142857 106.28571
-3.4285715 -24.0 104.0
-3.4285715 -21.714285 104.0
-3.4285715 -19.428572 104.0
-3.4285715 -17.142857 104.0
-3.4285715 -14.857142 104.0
-3.4285715 -12.571428 104.0
-3.4285715 -10.285714 104.0
-3.4285715 -8.0 104.0
-3.4285715 -5.714286 104.0
-3.4285715 -3.4285715 104.0
-3.4285715 -1.1428572 104.0
-3.4285715 1.1428572 104.0
-3.4285715 3.4285715 104.0
-3.4285715 5.714286 104.0
-3.4285715 8.0 104.0
-3.4285715 10.285714 104.0
-3.4285715 12.571428 104.0
-3.4285715 14.857142 104.0
-3.4285715 17.142857 104.0
-3.4285715 19.428572 104.0
-3.4285715 21.714285 104.0
-3.4285715 24.0 104.0
-3.4285715 26.285715 104.0
-3.4285715 28.571428 104.0
-3.4285715 30.857143 104.0
-3.4285715 33.142857 104.0
-3.4285715 -21.714285 101.71429
-3.4285715 -19.428572 101.71429
-3.4285715 -17.142857 101.71429
-3.4285715 -14.857142 101.71429
-3.4285715 -12.571428 101.71429
-3.4285715 -10.285714 101.71429
-3.4285715 -8.0 101.71429
-3.4285715 -5.714286 101.71429
-3.4285715 -3.4285715 101.71429
-3.4285715 -1.1428572 101.71429
-3.4285715 1.1428572 101.71429
-3.4285715 3.4285715 101.71429
-3.4285715 5.714286 101.71429
-3.4285715 8.0 101.71429
-3.4285715 10.285714 101.71429
-3.4285715 12.571428 101.71429
-3.4285715 14.857142 101.71429
-3.4285715 17.142857 101.71429
-3.4285715 19.428572 101.71429
-3.4285715 21.714285 101.71429
-3.4285715 24.0 101.71429
-3.4285715 26.285715 101.71429
-3.4285715 28.571428 101.71429
-3.4285715 30.857143 101.71429
-3.4285715 33.142857 101.71429
-3.4285715 -19.428572 99.42857
-3.4285715 -17.142857 99.42857
-3.4285715 -14.857142 99.42857
-3.4285715 -12.571428 99.42857
-3.4285715 -10.285714 99.42857
-3.4285715 -8.0 99.42857
-3.4285715 -5.714286 99.42857
-3.4285715 -3.4285715 99.42857
-3.4285715 -1.1428572 99.42857
-3.4285715 1.1428572 99.42857
-3.4285715 3.4285715 99.42857
-3.4285715 5.714286 99.42857
-3.4285715 8.0 99.42857
-3.4285715 10.285714 99.42857
-3.4285715 12.571428 99.42857
-3.4285715 14.857142 99.42857
-3.4285715 17.142857 99.42857
-3.4285715 19.428572 99.42857
-3.4285715 21.714285 99.42857
-3.4285715 24.0 99.42857
-3.4285715 26.285715 99.42857
-3.4285715 28.571428 99.42857
-3.4285715 30.857143 99.42857
-3.4285715 33.142857 99.42857
-3.4285715 -19.428572 97.14286
-3.4285715 -17.142857 97.14286
-3.4285715 -14.857142 97.14286
-3.4285715 -12.571428 97.14286
-3.4285715 -10.285714 97.14286
-3.4285715 -8.0 97.14286
-3.4285715 -5.714286 97.14286
-3.4285715 -3.4285715 97.14286
-3.4285715 -1.1428572 97.14286
-3.4285715 1.1428572 97.14286
-3.4285715 3.4285715 97.14286
-3.4285715 5.714286 97.14286
-3.4285715 8.0 97.14286
-3.4285715 10.285714 97.14286
-3.4285715 12.571428 97.14286
-3.4285715 14.857142 97.14286
-3.4285715 17.142857 97.14286
-3.4285715 19.428572 97.14286
-3.4285715 21.714285 97.14286
-3.4285715 24.0 97.14286
-3.4285715 26.285715 97.14286
-3.4285715 28.571428 97.14286
-3.4285715 30.857143 97.14286
-3.4285715 33.142857 97.14286
-3.4285715 -17.142857 94.85714
-3.4285715 -14.857142 94.85714
-3.4285715 -12.571428 94.85714
-3.4285715 -10.285714 94.85714
-3.4285715 -8.0 94.85714
-3.4285715 -5.714286 94.85714
-3.4285715 -3.4285715 94.85714
-3.4285715 -1.1428572 94.85714
-3.4285715 1.1428572 94.85714
-3.4285715 3.4285715 94.85714
-3.4285715 5.714286 94.85714
-3.4285715 8.0 94.85714
-3.4285715 10.285714 94.85714
-3.4285715 12.571428 94.85714
-3.4285715 14.857142 94.85714
-3.4285715 17.142857 94.85714
-3.4285715 19.428572 94.85714
-3.4285715 21.714285 94.85714
-3.4285715 24.0 94.85714
-3.4285715 26.285715 94.85714
-3.4285715 28.571428 94.85714
-3.4285715 30.857143 94.85714
-3.4285715 33.142857 94.85714
-3.4285715 35.42857 94.85714
-3.4285715 -17.142857 92.57143
-3.4285715 -14.857142 92.57143
-3.4285715 -12.571428 92.57143
-3.4285715 -10.285714 92.57143
-3.4285715 -8.0 92.57143
-3.4285715 -5.714286 92.57143
-3.4285715 -3.4285715 92.57143
-3.4285715 -1.1428572 92.57143
-3.4285715 1.1428572 92.57143
-3.4285715 3.4285715 92.57143
-3.4285715 5.714286 92.57143
-3.4285715 8.0 92.57143
-3.4285715 10.285714 92.57143
-3.4285715 12.571428 92.57143
-3.4285715 14.857142 92.57143
-3.4285715 17.142857 92.57143
-3.4285715 19.428572 92.57143
-3.4285715 21.714285 92.57143
-3.4285715 24.0 92.57143
-3.4285715 26.285715 92.57143
-3.4285715 28.571428 92.57143
-3.4285715 30.857143 92.57143
-3.4285715 33.142857 92.57143
-3.4285715 35.42857 92.57143
-3.4285715 37.714287 92.57143
-3.4285715 -19.428572 90.28571
-3.4285715 -17.142857 90.28571
-3.4285715 -14.857142 90.28571
-3.4285715 -12.571428 90.28571
-3.4285715 -10.285714 90.28571
-3.4285715 -8.0 90.28571
-3.4285715 -5.714286 90.28571
-3.4285715 -3.4285715 90.28571
-3.4285715 -1.1428572 90.28571
-3.4285715 1.1428572 90.28571
-3.4285715 3.4285715 90.28571
-3.4285715 5.714286 90.28571
-3.4285715 8.0 90.28571
-3.4285715 10.285714 90.28571
-3.4285715 12.571428 90.28571
-3.4285715 14.857142 90.28571
-3.4285715 17.142857 90.28571
-3.4285715 19.428572 90.28571
-3.4285715 21.714285 90.28571
-3.4285715 24.0 90.28571
-3.4285715 26.285715 90.28571
-3.4285715 28.571428 90.28571
-3.4285715 30.857143 90.28571
-3.4285715 33.142857 90.28571
-3.4285715 35.42857 90.28571
-3.4285715 37.714287 90.28571
-3.4285715 -24.0 88.0
-3.4285715 -21.714285 88.0
-3.4285715 -19.428572 88.0
-3.4285715 -17.142857 88.0
-3.4285715 -14.857142 88.0
-3.4285715 -12.571428 88.0
-3.4285715 -10.285714 88.0
-3.4285715 -8.0 88.0
-3.4285715 -5.714286 88.0
-3.4285715 -3.4285715 88.0
-3.4285715 -1.1428572 88.0
-3.4285715 1.1428572 88.0
-3.4285715 3.4285715 88.0
-3.4285715 5.714286 88.0
-3.4285715 8.0 88.0
-3.4285715 10.285714 88.0
-3.4285715 12.571428 88.0
-3.4285715 14.857142 88.0
-3.4285715 17.142857 88.0
-3.4285715 19.428572 88.0
-3.4285715 21.714285 88.0
-3.4285715 24.0 88.0
-3.4285715 26.285715 88.0
-3.4285715 28.571428 88.0
-3.4285715 30.857143 88.0
-3.4285715 33.142857 88.0
-3.4285715 35.42857 88.0
-3.4285715 37.714287 88.0
-3.4285715 -26.285715 85.71429
-3.4285715 -24.0 85.71429
-3.4285715 -21.714285 85.71429
-3.4285715 -19.428572 85.71429
-3.4285715 -17.142857 85.71429
-3.4285715 -14.857142 85.71429
-3.4285715 -12.571428 85.71429
-3.4285715 -10.285714 85.71429
-3.4285715 -8.0 85.71429
-3.4285715 -5.714286 85.71429
-3.4285715 -3.4285715 85.71429
-3.4285715 -1.1428572 85.71429
-3.4285715 1.1428572 85.71429
-3.4285715 3.4285715 85.71429
-3.4285715 5.714286 85.71429
-3.4285715 8.0 85.71429
-3.4285715 10.285714 85.71429
-3.4285715 12.571428 85.71429
-3.4285715 14.857142 85.71429
-3.4285715 17.142857 85.71429
-3.4285715 19.428572 85.71429
-3.4285715 21.714285 85.71429
-3.4285715 24.0 85.71429
-3.4285715 26.285715 85.71429
-3.4285715 28.571428 85.71429
-3.4285715 30.857143 85.71429
-3.4285715 33.142857 85.71429
-3.4285715 35.42857 85.71429
-3.4285715 37.714287 85.71429
-3.4285715 -28.571428 83.42857
-3.4285715 -26.285715 83.42857
-3.4285715 -24.0 83.42857
-3.4285715 -21.714285 83.42857
-3.4285715 -19.428572 83.42857
-3.4285715 -17.142857 83.42857
-3.4285715 -14.857142 83.42857
-3.4285715 -12.571428 83.42857
-3.4285715 -10.285714 83.42857
-3.4285715 -8.0 83.42857
-3.4285715 -5.714286 83.42857
-3.4285715 -3.4285715 83.42857
-3.4285715 -1.1428572 83.42857
-3.4285715 1.1428572 83.42857
-3.4285715 3.4285715 83.42857
-3.4285715 5.714286 83.42857
-3.4285715 8.0 83.42857
-3.4285715 10.285714 83.42857
-3.4285715 12.571428 83.42857
-3.4285715 14.857142 83.42857
-3.4285715 17.142857 83.42857
-3.4285715 19.428572 83.42857
-3.4285715 21.714285 83.42857
-3.4285715 24.0 83.42857
-3.4285715 26.285715 83.42857
-3.4285715 28.571428 83.42857
-3.4285715 -28.571428 81.14286
-3.4285715 -26.285715 81.14286
-3.4285715 -24.0 81.14286
-3.4285715 -21.714285 81.14286
-3.4285715 -19.428572 81.14286
-3.4285715 -17.142857 81.14286
-3.4285715 -14.857142 81.14286
-3.4285715 -12.571428 81.14286
-3.4285715 -10.285714 81.14286
-3.4285715 -8.0 81.14286
-3.4285715 -5.714286 81.14286
-3.4285715 -3.4285715 81.14286
-3.4285715 -1.1428572 81.14286
-3.4285715 1.1428572 81.14286
-3.4285715 3.4285715 81.14286
-3.4285715 5.714286 81.14286
-3.4285715 8.0 81.14286
-3.4285715 10.285714 81.14286
-3.4285715 12.571428 81.14286
-3.4285715 14.857142 81.14286
-3.4285715 17.142857 81.14286
-3.4285715 19.428572 81.14286
-3.4285715 21.714285 81.14286
-3.4285715 24.0 81.14286
-3.4285715 26.285715 81.14286
-3.4285715 28.571428 81.14286
-5.714286 -37.714287 163.42857
-5.714286 -35.42857 163.42857
-5.714286 -33.142857 163.42857
-5.714286 -30.857143 163.42857
-5.714286 -28.571428 163.42857
-5.714286 -26.285715 163.42857
-5.714286 -24.0 163.42857
-5.714286 -21.714285 163.42857
-5.714286 -19.428572 163.42857
-5.714286 -17.142857 163.42857
-5.714286 -14.857142 163.42857
-5.714286 -40.0 161.14285
-5.714286 -37.714287 161.14285
-5.714286 -35.42857 161.14285
-5.714286 -33.142857 161.14285
-5.714286 -30.857143 161.14285
-5.714286 -28.571428 161.14285
-5.714286 -26.285715 161.14285
-5.714286 -24.0 161.14285
-5.714286 -21.714285 161.14285
-5.714286 -19.428572 161.14285
-5.714286 -17.142857 161.14285
-5.714286 -14.857142 161.14285
-5.714286 -12.571428 161.14285
-5.714286 -10.285714 161.14285
-5.714286 -8.0 161.14285
-5.714286 -5.714286 161.14285
-5.714286 -3.4285715 161.14285
-5.714286 -1.1428572 161.14285
-5.714286 -42.285713 158.85715
-5.714286 -40.0 158.85715
-5.714286 -37.714287 158.85715
-5.714286 -35.42857 158.85715
-5.714286 -33.142857 158.85715
-5.714286 -30.857143 158.85715
-5.714286 -28.571428 158.85715
-5.714286 -26.285715 158.85715
-5.714286 -24.0 158.85715
-5.714286 -21.714285 158.85715
-5.714286 -19.428572 158.85715
-5.714286 -17.142857 158.85715
-5.714286 -14.857142 158.85715
-5.714286 -12.571428 158.85715
-5.714286 -10.285714 158.85715
-5.714286 -8.0 158.85715
-5.714286 -5.714286 158.85715
-5.714286 -3.4285715 158.85715
-5.714286 -1.1428572 158.85715
-5.714286 1.1428572 158.85715
-5.714286 3.4285715 158.85715
-5.714286 5.714286 158.85715
-5.714286 12.571428 158.85715
-5.714286 -44.57143 156.57143
-5.714286 -42.285713 156.57143
-5.714286 -40.0 156.57143
-5.714286 -37.714287 156.57143
-5.714286 -35.42857 156.57143
-5.714286 -33.142857 156.57143
-5.714286 -30.857143 156.57143
-5.714286 -28.571428 156.57143
-5.714286 -26.285715 156.57143
-5.714286 -24.0 156.57143
-5.714286 -21.714285 156.57143
-5.714286 -19.428572 156.57143
-5.714286 -17.142857 156.57143
-5.714286 -14.857142 156.57143
-5.714286 -12.571428 156.57143
-5.714286 -10.285714 156.57143
-5.714286 -8.0 156.57143
-5.714286 -5.714286 156.57143
-5.714286 -3.4285715 156.57143
-5.714286 -1.1428572 156.57143
-5.714286 1.1428572 156.57143
-5.714286 3.4285715 156.57143
-5.714286 5.714286 156.57143
-5.714286 8.0 156.57143
-5.714286 10.285714 156.57143
-5.714286 12.571428 156.57143
-5.714286 -44.57143 154.28572
-5.714286 -42.285713 154.28572
-5.714286 -40.0 154.28572
-5.714286 -37.714287 154.28572
-5.714286 -35.42857 154.28572
-5.714286 -33.142857 154.28572
-5.714286 -30.857143 154.28572
-5.714286 -28.571428 154.28572
-5.714286 -26.285715 154.28572
-5.714286 -24.0 154.28572
-5.714286 -21.714285 154.28572
-5.714286 -19.428572 154.28572
-5.714286 -17.142857 154.28572
-5.714286 -14.857142 154.28572
-5.714286 -12.571428 154.28572
-5.714286 -10.285714 154.28572
-5.714286 -8.0 154.28572
-5.714286 -5.714286 154.28572
-5.714286 -3.4285715 154.28572
-5.714286 -1.1428572 154.28572
-5.714286 1.1428572 154.28572
-5.714286 3.4285715 154.28572
-5.714286 5.714286 154.28572
-5.714286 8.0 154.28572
-5.714286 -44.57143 152.0
-5.714286 -42.285713 152.0
-5.714286 -40.0 152.0
-5.714286 -37.714287 152.0
-5.714286 -35.42857 152.0
-5.714286 -33.142857 152.0
-5.714286 -30.857143 152.0
-5.714286 -28.571428 152.0
-5.714286 -26.285715 152.0
-5.714286 -24.0 152.0
-5.714286 -21.714285 152.0
-5.714286 -19.428572 152.0
-5.714286 -17.142857 152.0
-5.714286 -14.857142 152.0
-5.714286 -12.571428 152.0
-5.714286 -10.285714 152.0
-5.714286 -8.0 152.0
-5.714286 -5.714286 152.0
-5.714286 -3.4285715 152.0
-5.714286 -1.1428572 152.0
-5.714286 1.1428572 152.0
-5.714286 3.4285715 152.0
-5.714286 5.714286 152.0
-5.714286 8.0 152.0
-5.714286 10.285714 152.0
-5.714286 -42.285713 149.71428
-5.714286 -40.0 149.71428
-5.714286 -37.714287 149.71428
-5.714286 -35.42857 149.71428
-5.714286 -33.142857 149.71428
-5.714286 -30.857143 149.71428
-5.714286 -28.571428 149.71428
-5.714286 -26.285715 149.71428
-5.714286 -24.0 149.71428
-5.714286 -21.714285 149.71428
-5.714286 -19.428572 149.71428
-5.714286 -17.142857 149.71428
-5.714286 -14.857142 149.71428
-5.714286 -12.571428 149.71428
-5.714286 -10.285714 149.71428
-5.714286 -8.0 149.71428
-5.714286 -5.714286 149.71428
-5.714286 -3.4285715 149.71428
-5.714286 -1.1428572 149.71428
-5.714286 1.1428572 149.71428
-5.714286 3.4285715 149.71428
-5.714286 5.714286 149.71428
-5.714286 8.0 149.71428
-5.714286 10.285714 149.71428
-5.714286 -40.0 147.42857
-5.714286 -37.714287 147.42857
-5.714286 -35.42857 147.42857
-5.714286 -33.142857 147.42857
-5.714286 -30.857143 147.42857
-5.714286 -28.571428 147.42857
-5.714286 -26.285715 147.42857
-5.714286 -24.0 147.42857
-5.714286 -21.714285 147.42857
-5.714286 -19.428572 147.42857
-5.714286 -17.142857 147.42857
-5.714286 -14.857142 147.42857
-5.714286 -12.571428 147.42857
-5.714286 -10.285714 147.42857
-5.714286 -8.0 147.42857
-5.714286 -5.714286 147.42857
-5.714286 -3.4285715 147.42857
-5.714286 -1.1428572 147.42857
-5.714286 1.1428572 147.42857
-5.714286 3.4285715 147.42857
-5.714286 5.714286 147.42857
-5.714286 8.0 147.42857
-5.714286 10.285714 147.42857
-5.714286 12.571428 147.42857
-5.714286 -35.42857 145.14285
-5.714286 -33.142857 145.14285
-5.714286 -30.857143 145.14285
-5.714286 -28.571428 145.14285
-5.714286 -26.285715 145.14285
-5.714286 -24.0 145.14285
-5.714286 -21.714285 145.14285
-5.714286 -19.428572 145.14285
-5.714286 -17.142857 145.14285
-5.714286 -14.857142 145.14285
-5.714286 -12.571428 145.14285
-5.714286 -10.285714 145.14285
-5.714286 -8.0 145.14285
-5.714286 -5.714286 145.14285
-5.714286 -3.4285715 145.14285
-5.714286 -1.1428572 145.14285
-5.714286 1.1428572 145.14285
-5.714286 3.4285715 145.14285
-5.714286 5.714286 145.14285
-5.714286 8.0 145.14285
-5.714286 10.285714 145.14285
-5.714286 12.571428 145.14285
-5.714286 -33.142857 142.85715
-5.714286 -30.857143 142.85715
-5.714286 -28.571428 142.85715
-5.714286 -26.285715 142.85715
-5.714286 -24.0 142.85715
-5.714286 -21.714285 142.85715
-5.714286 -19.428572 142.85715
-5.714286 -17.142857 142.85715
-5.714286 -14.857142 142.85715
-5.714286 -12.571428 142.85715
-5.714286 -10.285714 142.85715
-5.714286 -8.0 142.85715
-5.714286 -5.714286 142.85715
-5.714286 -3.4285715 142.85715
-5.714286 -1.1428572 142.85715
-5.714286 1.1428572 142.85715
-5.714286 3.4285715 142.85715
-5.714286 5.714286 142.85715
-5.714286 8.0 142.85715
-5.714286 10.285714 142.85715
-5.714286 12.571428 142.85715
-5.714286 -28.571428 140.57143
-5.714286 -26.285715 140.57143
-5.714286 -24.0 140.57143
-5.714286 -21.714285 140.57143
-5.714286 -19.428572 140.57143
-5.714286 -17.142857 140.57143
-5.714286 -14.857142 140.57143
-5.714286 -12.571428 140.57143
-5.714286 -10.285714 140.57143
-5.714286 -8.0 140.57143
-5.714286 -5.714286 140.57143
-5.714286 -3.4285715 140.57143
-5.714286 -1.1428572 140.57143
-5.714286 1.1428572 140.57143
-5.714286 3.4285715 140.57143
-5.714286 5.714286 140.57143
-5.714286 8.0 140.57143
-5.714286 10.285714 140.57143
-5.714286 12.571428 140.57143
-5.714286 -24.0 138.28572
-5.714286 -21.714285 138.28572
-5.714286 -19.428572 138.28572
-5.714286 -17.142857 138.28572
-5.714286 -14.857142 138.28572
-5.714286 -12.571428 138.28572
-5.714286 -10.285714 138.28572
-5.714286 -8.0 138.28572
-5.714286 -5.714286 138.28572
-5.714286 -3.4285715 138.28572
-5.714286 -1.1428572 138.28572
-5.714286 1.1428572 138.28572
-5.714286 3.4285715 138.28572
-5.714286 5.714286 138.28572
-5.714286 8.0 138.28572
-5.714286 10.285714 138.28572
-5.714286 12.571428 138.28572
-5.714286 -24.0 136.0
-5.714286 -21.714285 136.0
-5.714286 -19.428572 136.0
-5.714286 -17.142857 136.0
-5.714286 -14.857142 136.0
-5.714286 -12.571428 136.0
-5.714286 -10.285714 136.0
-5.714286 -8.0 136.0
-5.714286 -5.714286 136.0
-5.714286 -3.4285715 136.0
-5.714286 -1.1428572 136.0
-5.714286 1.1428572 136.0
-5.714286 3.4285715 136.0
-5.714286 5.714286 136.0
-5.714286 8.0 136.0
-5.714286 10.285714 136.0
-5.714286 12.571428 136.0
-5.714286 -24.0 133.71428
-5.714286 -21.714285 133.71428
-5.714286 -19.428572 133.71428
-5.714286 -17.142857 133.71428
-5.714286 -14.857142 133.71428
-5.714286 -12.571428 133.71428
-5.714286 -10.285714 133.71428
-5.714286 -8.0 133.71428
-5.714286 -5.714286 133.71428
-5.714286 -3.4285715 133.71428
-5.714286 -1.1428572 133.71428
-5.714286 1.1428572 133.71428
-5.714286 3.4285715 133.71428
-5.714286 5.714286 133.71428
-5.714286 8.0 133.71428
-5.714286 10.285714 133.71428
-5.714286 12.571428 133.71428
-5.714286 -24.0 131.42857
-5.714286 -21.714285 131.42857
-5.714286 -19.428572 131.42857
-5.714286 -17.142857 131.42857
-5.714286 -14.857142 131.42857
-5.714286 -12.571428 131.42857
-5.714286 -10.285714 131.42857
-5.714286 -8.0 131.42857
-5.714286 -5.714286 131.42857
-5.714286 -3.4285715 131.42857
-5.714286 -1.1428572 131.42857
-5.714286 1.1428572 131.42857
-5.714286 3.4285715 131.42857
-5.714286 5.714286 131.42857
-5.714286 8.0 131.42857
-5.714286 10.285714 131.42857
-5.714286 12.571428 131.42857
-5.714286 -24.0 129.14285
-5.714286 -21.714285 129.14285
-5.714286 -19.428572 129.14285
-5.714286 -17.142857 129.14285
-5.714286 -14.857142 129.14285
-5.714286 -12.571428 129.14285
-5.714286 -10.285714 129.14285
-5.714286 -8.0 129.14285
-5.714286 -5.714286 129.14285
-5.714286 -3.4285715 129.14285
-5.714286 -1.1428572 129.14285
-5.714286 1.1428572 129.14285
-5.714286 3.4285715 129.14285
-5.714286 5.714286 129.14285
-5.714286 8.0 129.14285
-5.714286 10.285714 129.14285
-5.714286 12.571428 129.14285
-5.714286 -26.285715 126.85714
-5.714286 -24.0 126.85714
-5.714286 -21.714285 126.85714
-5.714286 -19.428572 126.85714
-5.714286 -17.142857 126.85714
-5.714286 -14.857142 126.85714
-5.714286 -12.571428 126.85714
-5.714286 -10.285714 126.85714
-5.714286 -8.0 126.85714
-5.714286 -5.714286 126.85714
-5.714286 -3.4285715 126.85714
-5.714286 -1.1428572 126.85714
-5.714286 1.1428572 126.85714
-5.714286 3.4285715 126.85714
-5.714286 5.714286 126.85714
-5.714286 8.0 126.85714
-5.714286 10.285714 126.85714
-5.714286 12.571428 126.85714
-5.714286 14.857142 126.85714
-5.714286 -26.285715 124.57143
-5.714286 -24.0 124.57143
-5.714286 -21.714285 124.57143
-5.714286 -19.428572 124.57143
-5.714286 -17.142857 124.57143
-5.714286 -14.857142 124.57143
-5.714286 -12.571428 124.57143
-5.714286 -10.285714 124.57143
-5.714286 -8.0 124.57143
-5.714286 -5.714286 124.57143
-5.714286 -3.4285715 124.57143
-5.714286 -1.1428572 124.57143
-5.714286 1.1428572 124.57143
-5.714286 3.4285715 124.57143
-5.714286 5.714286 124.57143
-5.714286 8.0 124.57143
-5.714286 10.285714 124.57143
-5.714286 12.571428 124.57143
-5.714286 14.857142 124.57143
-5.714286 17.142857 124.57143
-5.714286 -26.285715 122.28571
-5.714286 -24.0 122.28571
-5.714286 -21.714285 122.28571
-5.714286 -19.428572 122.28571
-5.714286 -17.142857 122.28571
-5.714286 -14.857142 122.28571
-5.714286 -12.571428 122.28571
-5.714286 -10.285714 122.28571
-5.714286 -8.0 122.28571
-5.714286 -5.714286 122.28571
-5.714286 -3.4285715 122.28571
-5.714286 -1.1428572 122.28571
-5.714286 1.1428572 122.28571
-5.714286 3.4285715 122.28571
-5.714286 5.714286 122.28571
-5.714286 8.0 122.28571
-5.714286 10.285714 122.28571
-5.714286 12.571428 122.28571
-5.714286 14.857142 122.28571
-5.714286 17.142857 122.28571
-5.714286 19.428572 122.28571
-5.714286 -26.285715 120.0
-5.714286 -24.0 120.0
-5.714286 -21.714285 120.0
-5.714286 -19.428572 120.0
-5.714286 -17.142857 120.0
-5.714286 -14.857142 120.0
-5.714286 -12.571428 120.0
-5.714286 -10.285714 120.0
-5.714286 -8.0 120.0
-5.714286 -5.714286 120.0
-5.714286 -3.4285715 120.0
-5.714286 -1.1428572 120.0
-5.714286 1.1428572 120.0
-5.714286 3.4285715 120.0
-5.714286 5.714286 120.0
-5.714286 8.0 120.0
-5.714286 10.285714 120.0
-5.714286 12.571428 120.0
-5.714286 14.857142 120.0
-5.714286 17.142857 120.0
-5.714286 19.428572 120.0
-5.714286 21.714285 120.0
-5.714286 -28.571428 117.71429
-5.714286 -26.285715 117.71429
-5.714286 -24.0 117.71429
-5.714286 -21.714285 117.71429
-5.714286 -19.428572 117.71429
-5.714286 -17.142857 117.71429
-5.714286 -14.857142 117.71429
-5.714286 -12.571428 117.71429
-5.714286 -10.285714 117.71429
-5.714286 -8.0 117.71429
-5.714286 -5.714286 117.71429
-5.714286 -3.4285715 117.71429
-5.714286 -1.1428572 117.71429
-5.714286 1.1428572 117.71429
-5.714286 3.4285715 117.71429
-5.714286 5.714286 117.71429
-5.714286 8.0 117.71429
-5.714286 10.285714 117.71429
-5.714286 12.571428 117.71429
-5.714286 14.857142 117.71429
-5.714286 17.142857 117.71429
-5.714286 19.428572 117.71429
-5.714286 21.714285 117.71429
-5.714286 24.0 117.71429
-5.714286 -26.285715 115.42857
-5.714286 -24.0 115.42857
-5.714286 -21.714285 115.42857
-5.714286 -19.428572 115.42857
-5.714286 -17.142857 115.42857
-5.714286 -14.857142 115.42857
-5.714286 -12.571428 115.42857
-5.714286 -10.285714 115.42857
-5.714286 -8.0 115.42857
-5.714286 -5.714286 115.42857
-5.714286 -3.4285715 115.42857
-5.714286 -1.1428572 115.42857
-5.714286 1.1428572 115.42857
-5.714286 3.4285715 115.42857
-5.714286 5.714286 115.42857
-5.714286 8.0 115.42857
-5.714286 10.285714 115.42857
-5.714286 12.571428 115.42857
-5.714286 14.857142 115.42857
-5.714286 17.142857 115.42857
-5.714286 19.428572 115.42857
-5.714286 21.714285 115.42857
-5.714286 24.0 115.42857
-5.714286 26.285715 115.42857
-5.714286 -26.285715 113.14286
-5.714286 -24.0 113.14286
-5.714286 -21.714285 113.14286
-5.714286 -19.428572 113.14286
-5.714286 -17.142857 113.14286
-5.714286 -14.857142 113.14286
-5.714286 -12.571428 113.14286
-5.714286 -10.285714 113.14286
-5.714286 -8.0 113.14286
-5.714286 -5.714286 113.14286
-5.714286 -3.4285715 113.14286
-5.714286 -1.1428572 113.14286
-5.714286 1.1428572 113.14286
-5.714286 3.4285715 113.14286
-5.714286 5.714286 113.14286
-5.714286 8.0 113.14286
-5.714286 10.285714 113.14286
-5.714286 12.571428 113.14286
-5.714286 14.857142 113.14286
-5.714286 17.142857 113.14286
-5.714286 19.428572 113.14286
-5.714286 21.714285 113.14286
-5.714286 24.0 113.14286
-5.714286 26.285715 113.14286
-5.714286 28.571428 113.14286
-5.714286 -26.285715 110.85714
-5.714286 -24.0 110.85714
-5.714286 -21.714285 110.85714
-5.714286 -19.428572 110.85714
-5.714286 -17.142857 110.85714
-5.714286 -14.857142 110.85714
-5.714286 -12.571428 110.85714
-5.714286 -10.285714 110.85714
-5.714286 -8.0 110.85714
-5.714286 -5.714286 110.85714
-5.714286 -3.4285715 110.85714
-5.714286 -1.1428572 110.85714
-5.714286 1.1428572 110.85714
-5.714286 3.4285715 110.85714
-5.714286 5.714286 110.85714
-5.714286 8.0 110.85714
-5.714286 10.285714 110.85714
-5.714286 12.571428 110.85714
-5.714286 14.857142 110.85714
-5.714286 17.142857 110.85714
-5.714286 19.428572 110.85714
-5.714286 21.714285 110.85714
-5.714286 24.0 110.85714
-5.714286 26.285715 110.85714
-5.714286 28.571428 110.85714
-5.714286 30.857143 110.85714
-5.714286 -26.285715 108.57143
-5.714286 -24.0 108.57143
-5.714286 -21.714285 108.57143
-5.714286 -19.428572 108.57143
-5.714286 -17.142857 108.57143
-5.714286 -14.857142 108.57143
-5.714286 -12.571428 108.57143
-5.714286 -10.285714 108.57143
-5.714286 -8.0 108.57143
-5.714286 -5.714286 108.57143
-5.714286 -3.4285715 108.57143
-5.714286 -1.1428572 108.57143
-5.714286 1.1428572 108.57143
-5.714286 3.4285715 108.57143
-5.714286 5.714286 108.57143
-5.714286 8.0 108.57143
-5.714286 10.285714 108.57143
-5.714286 12.571428 108.57143
-5.714286 14.857142 108.57143
-5.714286 17.142857 108.57143
-5.714286 19.428572 108.57143
-5.714286 21.714285 108.57143
-5.714286 24.0 108.57143
-5.714286 26.285715 108.57143
-5.714286 28.571428 108.57143
-5.714286 30.857143 108.57143
-5.714286 -24.0 106.28571
-5.714286 -21.714285 106.28571
-5.714286 -19.428572 106.28571
-5.714286 -17.142857 106.28571
-5.714286 -14.857142 106.28571
-5.714286 -12.571428 106.28571
-5.714286 -10.285714 106.28571
-5.714286 -8.0 106.28571
-5.714286 -5.714286 106.28571
-5.714286 -3.4285715 106.28571
-5.714286 -1.1428572 106.28571
-5.714286 1.1428572 106.28571
-5.714286 3.4285715 106.28571
-5.714286 5.714286 106.28571
-5.714286 8.0 106.28571
-5.714286 10.285714 106.28571
-5.714286 12.571428 106.28571
-5.714286 14.857142 106.28571
-5.714286 17.142857 106.28571
-5.714286 19.428572 106.28571
-5.714286 21.714285 106.28571
-5.714286 24.0 106.28571
-5.714286 26.285715 106.28571
-5.714286 28.571428 106.28571
-5.714286 30.857143 106.28571
-5.714286 33.142857 106.28571
-5.714286 -24.0 104.0
-5.714286 -21.714285 104.0
-5.714286 -19.428572 104.0
-5.714286 -17.142857 104.0
-5.714286 -14.857142 104.0
-5.714286 -12.571428 104.0
-5.714286 -10.285714 104.0
-5.714286 -8.0 104.0
-5.714286 -5.714286 104.0
-5.714286 -3.4285715 104.0
-5.714286 -1.1428572 104.0
-5.714286 1.1428572 104.0
-5.714286 3.4285715 104.0
-5.714286 5.714286 104.0
-5.714286 8.0 104.0
-5.714286 10.285714 104.0
-5.714286 12.571428 104.0
-5.714286 14.857142 104.0
-5.714286 17.142857 104.0
-5.714286 19.428572 104.0
-5.714286 21.714285 104.0
-5.714286 24.0 104.0
-5.714286 26.285715 104.0
-5.714286 28.571428 104.0
-5.714286 30.857143 104.0
-5.714286 33.142857 104.0
-5.714286 -21.714285 101.71429
-5.714286 -19.428572 101.71429
-5.714286 -17.142857 101.71429
-5.714286 -14.857142 101.71429
-5.714286 -12.571428 101.71429
-5.714286 -10.285714 101.71429
-5.714286 -8.0 101.71429
-5.714286 -5.714286 101.71429
-5.714286 -3.4285715 101.71429
-5.714286 -1.1428572 101.71429
-5.714286 1.1428572 101.71429
-5.714286 3.4285715 101.71429
-5.714286 5.714286 101.71429
-5.714286 8.0 101.71429
-5.714286 10.285714 101.71429
-5.714286 12.571428 101.71429
-5.714286 14.857142 101.71429
-5.714286 17.142857 101.71429
-5.714286 19.428572 101.71429
-5.714286 21.714285 101.71429
-5.714286 24.0 101.71429
-5.714286 26.285715 101.71429
-5.714286 28.571428 101.71429
-5.714286 30.857143 101.71429
-5.714286 33.142857 101.71429
-5.714286 -19.428572 99.42857
-5.714286 -17.142857 99.42857
-5.714286 -14.857142 99.42857
-5.714286 -12.571428 99.42857
-5.714286 -10.285714 99.42857
-5.714286 -8.0 99.42857
-5.714286 -5.714286 99.42857
-5.714286 -3.4285715 99.42857
-5.714286 -1.1428572 99.42857
-5.714286 1.1428572 99.42857
-5.714286 3.4285715 99.42857
-5.714286 5.714286 99.42857
-5.714286 8.0 99.42857
-5.714286 10.285714 99.42857
-5.714286 12.571428 99.42857
-5.714286 14.857142 99.42857
-5.714286 17.142857 99.42857
-5.714286 19.428572 99.42857
-5.714286 21.714285 99.42857
-5.714286 24.0 99.42857
-5.714286 26.285715 99.42857
-5.714286 28.571428 99.42857
-5.714286 30.857143 99.42857
-5.714286 33.142857 99.42857
-5.714286 -17.142857 97.14286
-5.714286 -14.857142 97.14286
-5.714286 -12.571428 97.14286
-5.714286 -10.285714 97.14286
-5.714286 -8.0 97.14286
-5.714286 -5.714286 97.14286
-5.714286 -3.4285715 97.14286
-5.714286 -1.1428572 97.14286
-5.714286 1.1428572 97.14286
-5.714286 3.4285715 97.14286
-5.714286 5.714286 97.14286
-5.714286 8.0 97.14286
-5.714286 10.285714 97.14286
-5.714286 12.571428 97.14286
-5.714286 14.857142 97.14286
-5.714286 17.142857 97.14286
-5.714286 19.428572 97.14286
-5.714286 21.714285 97.14286
-5.714286 24.0 97.14286
-5.714286 26.285715 97.14286
-5.714286 28.571428 97.14286
-5.714286 30.857143 97.14286
-5.714286 -14.857142 94.85714
-5.714286 -12.571428 94.85714
-5.714286 -10.285714 94.85714
-5.714286 -8.0 94.85714
-5.714286 -5.714286 94.85714
-5.714286 -3.4285715 94.85714
-5.714286 -1.1428572 94.85714
-5.714286 1.1428572 94.85714
-5.714286 3.4285715 94.85714
-5.714286 5.714286 94.85714
-5.714286 8.0 94.85714
-5.714286 10.285714 94.85714
-5.714286 12.571428 94.85714
-5.714286 14.857142 94.85714
-5.714286 17.142857 94.85714
-5.714286 19.428572 94.85714
-5.714286 21.714285 94.85714
-5.714286 24.0 94.85714
-5.714286 26.285715 94.85714
-5.714286 28.571428 94.85714
-5.714286 30.857143 94.85714
-5.714286 -17.142857 92.57143
-5.714286 -14.857142 92.57143
-5.714286 -12.571428 92.57143
-5.714286 -10.285714 92.57143
-5.714286 -8.0 92.57143
-5.714286 -5.714286 92.57143
-5.714286 -3.4285715 92.57143
-5.714286 -1.1428572 92.57143
-5.714286 1.1428572 92.57143
-5.714286 3.4285715 92.57143
-5.714286 5.714286 92.57143
-5.714286 8.0 92.57143
-5.714286 10.285714 92.57143
-5.714286 12.571428 92.57143
-5.714286 14.857142 92.57143
-5.714286 17.142857 92.57143
-5.714286 19.428572 92.57143
-5.714286 21.714285 92.57143
-5.714286 24.0 92.57143
-5.714286 26.285715 92.57143
-5.714286 28.571428 92.57143
-5.714286 30.857143 92.57143
-5.714286 33.142857 92.57143
-5.714286 35.42857 92.57143
-5.714286 -17.142857 90.28571
-5.714286 -14.857142 90.28571
-5.714286 -12.571428 90.28571
-5.714286 -10.285714 90.28571
-5.714286 -8.0 90.28571
-5.714286 -5.714286 90.28571
-5.714286 -3.4285715 90.28571
-5.714286 -1.1428572 90.28571
-5.714286 1.1428572 90.28571
-5.714286 3.4285715 90.28571
-5.714286 5.714286 90.28571
-5.714286 8.0 90.28571
-5.714286 10.285714 90.28571
-5.714286 12.571428 90.28571
-5.714286 14.857142 90.28571
-5.714286 17.142857 90.28571
-5.714286 19.428572 90.28571
-5.714286 21.714285 90.28571
-5.714286 24.0 90.28571
-5.714286 26.285715 90.28571
-5.714286 28.571428 90.28571
-5.714286 30.857143 90.28571
-5.714286 33.142857 90.28571
-5.714286 35.42857 90.28571
-5.714286 -24.0 88.0
-5.714286 -21.714285 88.0
-5.714286 -19.428572 88.0
-5.714286 -17.142857 88.0
-5.714286 -14.857142 88.0
-5.714286 -12.571428 88.0
-5.714286 -10.285714 88.0
-5.714286 -8.0 88.0
-5.714286 -5.714286 88.0
-5.714286 -3.4285715 88.0
-5.714286 -1.1428572 88.0
-5.714286 1.1428572 88.0
-5.714286 3.4285715 88.0
-5.714286 5.714286 88.0
-5.714286 8.0 88.0
-5.714286 10.285714 88.0
-5.714286 12.571428 88.0
-5.714286 14.857142 88.0
-5.714286 17.142857 88.0
-5.714286 19.428572 88.0
-5.714286 21.714285 88.0
-5.714286 24.0 88.0
-5.714286 26.285715 88.0
-5.714286 28.571428 88.0
-5.714286 30.857143 88.0
-5.714286 33.142857 88.0
-5.714286 35.42857 88.0
-5.714286 -26.285715 85.71429
-5.714286 -24.0 85.71429
-5.714286 -21.714285 85.71429
-5.714286 -19.428572 85.71429
-5.714286 -17.142857 85.71429
-5.714286 -14.857142 85.71429
-5.714286 -12.571428 85.71429
-5.714286 -10.285714 85.71429
-5.714286 -8.0 85.71429
-5.714286 -5.714286 85.71429
-5.714286 -3.4285715 85.71429
-5.714286 -1.1428572 85.71429
-5.714286 1.1428572 85.71429
-5.714286 3.4285715 85.71429
-5.714286 5.714286 85.71429
-5.714286 8.0 85.71429
-5.714286 10.285714 85.71429
-5.714286 12.571428 85.71429
-5.714286 14.857142 85.71429
-5.714286 17.142857 85.71429
-5.714286 19.428572 85.71429
-5.714286 21.714285 85.71429
-5.714286 24.0 85.71429
-5.714286 26.285715 85.71429
-5.714286 28.571428 85.71429
-5.714286 30.857143 85.71429
-5.714286 33.142857 85.71429
-5.714286 -28.571428 83.42857
-5.714286 -26.285715 83.42857
-5.714286 -24.0 83.42857
-5.714286 -21.714285 83.42857
-5.714286 -19.428572 83.42857
-5.714286 -17.142857 83.42857
-5.714286 -14.857142 83.42857
-5.714286 -12.571428 83.42857
-5.714286 -10.285714 83.42857
-5.714286 -8.0 83.42857
-5.714286 -5.714286 83.42857
-5.714286 -3.4285715 83.42857
-5.714286 -1.1428572 83.42857
-5.714286 1.1428572 83.42857
-5.714286 3.4285715 83.42857
-5.714286 5.714286 83.42857
-5.714286 8.0 83.42857
-5.714286 10.285714 83.42857
-5.714286 12.571428 83.42857
-5.714286 14.857142 83.42857
-5.714286 17.142857 83.42857
-5.714286 19.428572 83.42857
-5.714286 21.714285 83.42857
-5.714286 24.0 83.42857
-5.714286 26.285715 83.42857
-5.714286 28.571428 83.42857
-5.714286 -28.571428 81.14286
-5.714286 -26.285715 81.14286
-5.714286 -24.0 81.14286
-5.714286 -21.714285 81.14286
-5.714286 -19.428572 81.14286
-5.714286 -17.142857 81.14286
-5.714286 -14.857142 81.14286
-5.714286 -12.571428 81.14286
-5.714286 -10.285714 81.14286
-5.714286 -8.0 81.14286
-5.714286 -5.714286 81.14286
-5.714286 -3.4285715 81.14286
-5.714286 -1.1428572 81.14286
-5.714286 1.1428572 81.14286
-5.714286 3.4285715 81.14286
-5.714286 5.714286 81.14286
-5.714286 8.0 81.14286
-5.714286 10.285714 81.14286
-5.714286 12.571428 81.14286
-5.714286 14.857142 81.14286
-5.714286 17.142857 81.14286
-5.714286 19.428572 81.14286
-5.714286 21.714285 81.14286
-5.714286 24.0 81.14286
-5.714286 26.285715 81.14286
-5.714286 28.571428 81.14286
-8.0 -40.0 163.42857
-8.0 -37.714287 163.42857
-8.0 -35.42857 163.42857
-8.0 -33.142857 163.42857
-8.0 -30.857143 163.42857
-8.0 -28.571428 163.42857
-8.0 -26.285715 163.42857
-8.0 -24.0 163.42857
-8.0 -21.714285 163.42857
-8.0 -19.428572 163.42857
-8.0 -17.142857 163.42857
-8.0 -14.857142 163.42857
-8.0 -42.285713 161.14285
-8.0 -40.0 161.14285
-8.0 -37.714287 161.14285
-8.0 -35.42857 161.14285
-8.0 -33.142857 161.14285
-8.0 -30.857143 161.14285
-8.0 -28.571428 161.14285
-8.0 -26.285715 161.14285
-8.0 -24.0 161.14285
-8.0 -21.714285 161.14285
-8.0 -19.428572 161.14285
-8.0 -17.142857 161.14285
-8.0 -14.857142 161.14285
-8.0 -12.571428 161.14285
-8.0 -10.285714 161.14285
-8.0 -8.0 161.14285
-8.0 -5.714286 161.14285
-8.0 -3.4285715 161.14285
-8.0 -46.857143 158.85715
-8.0 -44.57143 158.85715
-8.0 -42.285713 158.85715
-8.0 -40.0 158.85715
-8.0 -37.714287 158.85715
-8.0 -35.42857 158.85715
-8.0 -33.142857 158.85715
-8.0 -30.857143 158.85715
-8.0 -28.571428 158.85715
-8.0 -26.285715 158.85715
-8.0 -24.0 158.85715
-8.0 -21.714285 158.85715
-8.0 -19.428572 158.85715
-8.0 -17.142857 158.85715
-8.0 -14.857142 158.85715
-8.0 -12.571428 158.85715
-8.0 -10.285714 158.85715
-8.0 -8.0 158.85715
-8.0 -5.714286 158.85715
-8.0 -3.4285715 158.85715
-8.0 -1.1428572 158.85715
-8.0 1.1428572 158.85715
-8.0 3.4285715 158.85715
-8.0 -46.857143 156.57143
-8.0 -44.57143 156.57143
-8.0 -42.285713 156.57143
-8.0 -40.0 156.57143
-8.0 -37.714287 156.57143
-8.0 -35.42857 156.57143
-8.0 -33.142857 156.57143
-8.0 -30.857143 156.57143
-8.0 -28.571428 156.57143
-8.0 -26.285715 156.57143
-8.0 -24.0 156.57143
-8.0 -21.714285 156.57143
-8.0 -19.428572 156.57143
-8.0 -17.142857 156.57143
-8.0 -14.857142 156.57143
-8.0 -12.571428 156.57143
-8.0 -10.285714 156.57143
-8.0 -8.0 156.57143
-8.0 -5.714286 156.57143
-8.0 -3.4285715 156.57143
-8.0 -1.1428572 156.57143
-8.0 1.1428572 156.57143
-8.0 3.4285715 156.57143
-8.0 5.714286 156.57143
-8.0 8.0 156.57143
-8.0 10.285714 156.57143
-8.0 -49.142857 154.28572
-8.0 -46.857143 154.28572
-8.0 -44.57143 154.28572
-8.0 -42.285713 154.28572
-8.0 -40.0 154.28572
-8.0 -37.714287 154.28572
-8.0 -35.42857 154.28572
-8.0 -33.142857 154.28572
-8.0 -30.857143 154.28572
-8.0 -28.571428 154.28572
-8.0 -26.285715 154.28572
-8.0 -24.0 154.28572
-8.0 -21.714285 154.28572
-8.0 -19.428572 154.28572
-8.0 -17.142857 154.28572
-8.0 -14.857142 154.28572
-8.0 -12.571428 154.28572
-8.0 -10.285714 154.28572
-8.0 -8.0 154.28572
-8.0 -5.714286 154.28572
-8.0 -3.4285715 154.28572
-8.0 -1.1428572 154.28572
-8.0 1.1428572 154.28572
-8.0 3.4285715 154.28572
-8.0 5.714286 154.28572
-8.0 8.0 154.28572
-8.0 -46.857143 152.0
-8.0 -44.57143 152.0
-8.0 -42.285713 152.0
-8.0 -40.0 152.0
-8.0 -37.714287 152.0
-8.0 -35.42857 152.0
-8.0 -33.142857 152.0
-8.0 -30.857143 152.0
-8.0 -28.571428 152.0
-8.0 -26.285715 152.0
-8.0 -24.0 152.0
-8.0 -21.714285 152.0
-8.0 -19.428572 152.0
-8.0 -17.142857 152.0
-8.0 -14.857142 152.0
-8.0 -12.571428 152.0
-8.0 -10.285714 152.0
-8.0 -8.0 152.0
-8.0 -5.714286 152.0
-8.0 -3.4285715 152.0
-8.0 -1.1428572 152.0
-8.0 1.1428572 152.0
-8.0 3.4285715 152.0
-8.0 5.714286 152.0
-8.0 8.0 152.0
-8.0 -46.857143 149.71428
-8.0 -44.57143 149.71428
-8.0 -42.285713 149.71428
-8.0 -40.0 149.71428
-8.0 -37.714287 149.71428
-8.0 -35.42857 149.71428
-8.0 -33.142857 149.71428
-8.0 -30.857143 149.71428
-8.0 -28.571428 149.71428
-8.0 -26.285715 149.71428
-8.0 -24.0 149.71428
-8.0 -21.714285 149.71428
-8.0 -19.428572 149.71428
-8.0 -17.142857 149.71428
-8.0 -14.857142 149.71428
-8.0 -12.571428 149.71428
-8.0 -10.285714 149.71428
-8.0 -8.0 149.71428
-8.0 -5.714286 149.71428
-8.0 -3.4285715 149.71428
-8.0 -1.1428572 149.71428
-8.0 1.1428572 149.71428
-8.0 3.4285715 149.71428
-8.0 5.714286 149.71428
-8.0 8.0 149.71428
-8.0 10.285714 149.71428
-8.0 -42.285713 147.42857
-8.0 -40.0 147.42857
-8.0 -37.714287 147.42857
-8.0 -35.42857 147.42857
-8.0 -33.142857 147.42857
-8.0 -30.857143 147.42857
-8.0 -28.571428 147.42857
-8.0 -26.285715 147.42857
-8.0 -24.0 147.42857
-8.0 -21.714285 147.42857
-8.0 -19.428572 147.42857
-8.0 -17.142857 147.42857
-8.0 -14.857142 147.42857
-8.0 -12.571428 147.42857
-8.0 -10.285714 147.42857
-8.0 -8.0 147.42857
-8.0 -5.714286 147.42857
-8.0 -3.4285715 147.42857
-8.0 -1.1428572 147.42857
-8.0 1.1428572 147.42857
-8.0 3.4285715 147.42857
-8.0 5.714286 147.42857
-8.0 8.0 147.42857
-8.0 10.285714 147.42857
-8.0 -35.42857 145.14285
-8.0 -33.142857 145.14285
-8.0 -30.857143 145.14285
-8.0 -28.571428 145.14285
-8.0 -26.285715 145.14285
-8.0 -24.0 145.14285
-8.0 -21.714285 145.14285
-8.0 -19.428572 145.14285
-8.0 -17.142857 145.14285
-8.0 -14.857142 145.14285
-8.0 -12.571428 145.14285
-8.0 -10.285714 145.14285
-8.0 -8.0 145.14285
-8.0 -5.714286 145.14285
-8.0 -3.4285715 145.14285
-8.0 -1.1428572 145.14285
-8.0 1.1428572 145.14285
-8.0 3.4285715 145.14285
-8.0 5.714286 145.14285
-8.0 8.0 145.14285
-8.0 10.285714 145.14285
-8.0 12.571428 145.14285
-8.0 -33.142857 142.85715
-8.0 -30.857143 142.85715
-8.0 -28.571428 142.85715
-8.0 -26.285715 142.85715
-8.0 -24.0 142.85715
-8.0 -21.714285 142.85715
-8.0 -19.428572 142.85715
-8.0 -17.142857 142.85715
-8.0 -14.857142 142.85715
-8.0 -12.571428 142.85715
-8.0 -10.285714 142.85715
-8.0 -8.0 142.85715
-8.0 -5.714286 142.85715
-8.0 -3.4285715 142.85715
-8.0 -1.1428572 142.85715
-8.0 1.1428572 142.85715
-8.0 3.4285715 142.85715
-8.0 5.714286 142.85715
-8.0 8.0 142.85715
-8.0 10.285714 142.85715
-8.0 12.571428 142.85715
-8.0 -28.571428 140.57143
-8.0 -26.285715 140.57143
-8.0 -24.0 140.57143
-8.0 -21.714285 140.57143
-8.0 -19.428572 140.57143
-8.0 -17.142857 140.57143
-8.0 -14.857142 140.57143
-8.0 -12.571428 140.57143
-8.0 -10.285714 140.57143
-8.0 -8.0 140.57143
-8.0 -5.714286 140.57143
-8.0 -3.4285715 140.57143
-8.0 -1.1428572 140.57143
-8.0 1.1428572 140.57143
-8.0 3.4285715 140.57143
-8.0 5.714286 140.57143
-8.0 8.0 140.57143
-8.0 10.285714 140.57143
-8.0 12.571428 140.57143
-8.0 -24.0 138.28572
-8.0 -21.714285 138.28572
-8.0 -19.428572 138.28572
-8.0 -17.142857 138.28572
-8.0 -14.857142 138.28572
-8.0 -12.571428 138.28572
-8.0 -10.285714 138.28572
-8.0 -8.0 138.28572
-8.0 -5.714286 138.28572
-8.0 -3.4285715 138.28572
-8.0 -1.1428572 138.28572
-8.0 1.1428572 138.28572
-8.0 3.4285715 138.28572
-8.0 5.714286 138.28572
-8.0 8.0 138.28572
-8.0 10.285714 138.28572
-8.0 12.571428 138.28572
-8.0 -21.714285 136.0
-8.0 -19.428572 136.0
-8.0 -17.142857 136.0
-8.0 -14.857142 136.0
-8.0 -12.571428 136.0
-8.0 -10.285714 136.0
-8.0 -8.0 136.0
-8.0 -5.714286 136.0
-8.0 -3.4285715 136.0
-8.0 -1.1428572 136.0
-8.0 1.1428572 136.0
-8.0 3.4285715 136.0
-8.0 5.714286 136.0
-8.0 8.0 136.0
-8.0 10.285714 136.0
-8.0 12.571428 136.0
-8.0 -24.0 133.71428
-8.0 -21.714285 133.71428
-8.0 -19.428572 133.71428
-8.0 -17.142857 133.71428
-8.0 -14.857142 133.71428
-8.0 -12.571428 133.71428
-8.0 -10.285714 133.71428
-8.0 -8.0 133.71428
-8.0 -5.714286 133.71428
-8.0 -3.4285715 133.71428
-8.0 -1.1428572 133.71428
-8.0 1.1428572 133.71428
-8.0 3.4285715 133.71428
-8.0 5.714286 133.71428
-8.0 8.0 133.71428
