ply
format ascii 1.0
element vertex 1748
property float x
property float y
property float z
end_header
3.25 24.916666 109.25
3.25 27.083334 109.25
3.25 29.25 109.25
3.25 31.416666 109.25
3.25 33.583332 109.25
3.25 -24.916666 107.083336
3.25 -22.75 107.083336
3.25 -20.583334 107.083336
3.25 -18.416666 107.083336
3.25 -16.25 107.083336
3.25 -14.083333 107.083336
3.25 -11.916667 107.083336
3.25 -9.75 107.083336
3.25 -7.5833335 107.083336
3.25 -5.4166665 107.083336
3.25 -3.25 107.083336
3.25 -1.0833334 107.083336
3.25 1.0833334 107.083336
3.25 3.25 107.083336
3.25 5.4166665 107.083336
3.25 7.5833335 107.083336
3.25 9.75 107.083336
3.25 11.916667 107.083336
3.25 14.083333 107.083336
3.25 16.25 107.083336
3.25 18.416666 107.083336
3.25 20.583334 107.083336
3.25 22.75 107.083336
3.25 24.916666 107.083336
3.25 27.083334 107.083336
3.25 29.25 107.083336
3.25 31.416666 107.083336
3.25 33.583332 107.083336
3.25 35.75 107.083336
3.25 -22.75 104.916664
3.25 -20.583334 104.916664
3.25 -18.416666 104.916664
3.25 -16.25 104.916664
3.25 -14.083333 104.916664
3.25 -11.916667 104.916664
3.25 -9.75 104.916664
3.25 -7.5833335 104.916664
3.25 -5.4166665 104.916664
3.25 -3.25 104.916664
3.25 -1.0833334 104.916664
3.25 1.0833334 104.916664
3.25 3.25 104.916664
3.25 5.4166665 104.916664
3.25 7.5833335 104.916664
3.25 9.75 104.916664
3.25 11.916667 104.916664
3.25 14.083333 104.916664
3.25 16.25 104.916664
3.25 18.416666 104.916664
3.25 20.583334 104.916664
3.25 22.75 104.916664
3.25 24.916666 104.916664
3.25 27.083334 104.916664
3.25 29.25 104.916664
3.25 31.416666 104.916664
3.25 33.583332 104.916664
3.25 35.75 104.916664
3.25 -22.75 102.75
3.25 -20.583334 102.75
3.25 -18.416666 102.75
3.25 -16.25 102.75
3.25 -14.083333 102.75
3.25 -11.916667 102.75
3.25 -9.75 102.75
3.25 -7.5833335 102.75
3.25 -5.4166665 102.75
3.25 -3.25 102.75
3.25 -1.0833334 102.75
3.25 1.0833334 102.75
3.25 3.25 102.75
3.25 5.4166665 102.75
3.25 7.5833335 102.75
3.25 9.75 102.75
3.25 11.916667 102.75
3.25 14.083333 102.75
3.25 16.25 102.75
3.25 18.416666 102.75
3.25 20.583334 102.75
3.25 22.75 102.75
3.25 24.916666 102.75
3.25 27.083334 102.75
3.25 29.25 102.75
3.25 31.416666 102.75
3.25 33.583332 102.75
3.25 35.75 102.75
3.25 37.916668 102.75
3.25 -20.583334 100.583336
3.25 -18.416666 100.583336
3.25 -16.25 100.583336
3.25 -14.083333 100.583336
3.25 -11.916667 100.583336
3.25 -9.75 100.583336
3.25 -7.5833335 100.583336
3.25 -5.4166665 100.583336
3.25 -3.25 100.583336
3.25 -1.0833334 100.583336
3.25 1.0833334 100.583336
3.25 3.25 100.583336
3.25 5.4166665 100.583336
3.25 7.5833335 100.583336
3.25 9.75 100.583336
3.25 11.916667 100.583336
3.25 14.083333 100.583336
3.25 16.25 100.583336
3.25 18.416666 100.583336
3.25 20.583334 100.583336
3.25 22.75 100.583336
3.25 24.916666 100.583336
3.25 27.083334 100.583336
3.25 29.25 100.583336
3.25 31.416666 100.583336
3.25 33.583332 100.583336
3.25 35.75 100.583336
3.25 37.916668 100.583336
3.25 -20.583334 98.416664
3.25 -18.416666 98.416664
3.25 -16.25 98.416664
3.25 -14.083333 98.416664
3.25 -11.916667 98.416664
3.25 -9.75 98.416664
3.25 -7.5833335 98.416664
3.25 -5.4166665 98.416664
3.25 -3.25 98.416664
3.25 -1.0833334 98.416664
3.25 1.0833334 98.416664
3.25 3.25 98.416664
3.25 5.4166665 98.416664
3.25 7.5833335 98.416664
3.25 9.75 98.416664
3.25 11.916667 98.416664
3.25 14.083333 98.416664
3.25 16.25 98.416664
3.25 18.416666 98.416664
3.25 20.583334 98.416664
3.25 22.75 98.416664
3.25 24.916666 98.416664
3.25 27.083334 98.416664
3.25 29.25 98.416664
3.25 31.416666 98.416664
3.25 33.583332 98.416664
3.25 35.75 98.416664
3.25 37.916668 98.416664
3.25 -18.416666 96.25
3.25 -16.25 96.25
3.25 -14.083333 96.25
3.25 -11.916667 96.25
3.25 -9.75 96.25
3.25 -7.5833335 96.25
3.25 -5.4166665 96.25
3.25 -3.25 96.25
3.25 -1.0833334 96.25
3.25 1.0833334 96.25
3.25 3.25 96.25
3.25 5.4166665 96.25
3.25 7.5833335 96.25
3.25 9.75 96.25
3.25 11.916667 96.25
3.25 14.083333 96.25
3.25 16.25 96.25
3.25 18.416666 96.25
3.25 20.583334 96.25
3.25 22.75 96.25
3.25 24.916666 96.25
3.25 27.083334 96.25
3.25 29.25 96.25
3.25 31.416666 96.25
3.25 33.583332 96.25
3.25 35.75 96.25
3.25 37.916668 96.25
3.25 -16.25 94.083336
3.25 -14.083333 94.083336
3.25 -11.916667 94.083336
3.25 -9.75 94.083336
3.25 -7.5833335 94.083336
3.25 -5.4166665 94.083336
3.25 -3.25 94.083336
3.25 -1.0833334 94.083336
3.25 1.0833334 94.083336
3.25 3.25 94.083336
3.25 5.4166665 94.083336
3.25 7.5833335 94.083336
3.25 9.75 94.083336
3.25 11.916667 94.083336
3.25 14.083333 94.083336
3.25 16.25 94.083336
3.25 18.416666 94.083336
3.25 20.583334 94.083336
3.25 22.75 94.083336
3.25 24.916666 94.083336
3.25 27.083334 94.083336
3.25 29.25 94.083336
3.25 31.416666 94.083336
3.25 33.583332 94.083336
3.25 35.75 94.083336
3.25 37.916668 94.083336
3.25 -16.25 91.916664
3.25 -14.083333 91.916664
3.25 -11.916667 91.916664
3.25 -9.75 91.916664
3.25 -7.5833335 91.916664
3.25 -5.4166665 91.916664
3.25 -3.25 91.916664
3.25 -1.0833334 91.916664
3.25 1.0833334 91.916664
3.25 3.25 91.916664
3.25 5.4166665 91.916664
3.25 7.5833335 91.916664
3.25 9.75 91.916664
3.25 11.916667 91.916664
3.25 14.083333 91.916664
3.25 16.25 91.916664
3.25 18.416666 91.916664
3.25 20.583334 91.916664
3.25 22.75 91.916664
3.25 24.916666 91.916664
3.25 27.083334 91.916664
3.25 29.25 91.916664
3.25 31.416666 91.916664
3.25 33.583332 91.916664
3.25 35.75 91.916664
3.25 37.916668 91.916664
3.25 40.083332 91.916664
3.25 -20.583334 89.75
3.25 -18.416666 89.75
3.25 -16.25 89.75
3.25 -14.083333 89.75
3.25 -11.916667 89.75
3.25 -9.75 89.75
3.25 -7.5833335 89.75
3.25 -5.4166665 89.75
3.25 -3.25 89.75
3.25 -1.0833334 89.75
3.25 1.0833334 89.75
3.25 3.25 89.75
3.25 5.4166665 89.75
3.25 7.5833335 89.75
3.25 9.75 89.75
3.25 11.916667 89.75
3.25 14.083333 89.75
3.25 16.25 89.75
3.25 18.416666 89.75
3.25 20.583334 89.75
3.25 22.75 89.75
3.25 24.916666 89.75
3.25 27.083334 89.75
3.25 29.25 89.75
3.25 31.416666 89.75
3.25 33.583332 89.75
3.25 35.75 89.75
3.25 37.916668 89.75
3.25 40.083332 89.75
3.25 -24.916666 87.583336
3.25 -22.75 87.583336
3.25 -20.583334 87.583336
3.25 -18.416666 87.583336
3.25 -16.25 87.583336
3.25 -14.083333 87.583336
3.25 -11.916667 87.583336
3.25 -9.75 87.583336
3.25 -7.5833335 87.583336
3.25 -5.4166665 87.583336
3.25 -3.25 87.583336
3.25 -1.0833334 87.583336
3.25 1.0833334 87.583336
3.25 3.25 87.583336
3.25 5.4166665 87.583336
3.25 7.5833335 87.583336
3.25 9.75 87.583336
3.25 11.916667 87.583336
3.25 14.083333 87.583336
3.25 16.25 87.583336
3.25 18.416666 87.583336
3.25 20.583334 87.583336
3.25 22.75 87.583336
3.25 24.916666 87.583336
3.25 27.083334 87.583336
3.25 29.25 87.583336
3.25 31.416666 87.583336
3.25 33.583332 87.583336
3.25 35.75 87.583336
3.25 37.916668 87.583336
3.25 40.083332 87.583336
3.25 -27.083334 85.416664
3.25 -24.916666 85.416664
3.25 -22.75 85.416664
3.25 -20.583334 85.416664
3.25 -18.416666 85.416664
3.25 -16.25 85.416664
3.25 -14.083333 85.416664
3.25 -11.916667 85.416664
3.25 -9.75 85.416664
3.25 -7.5833335 85.416664
3.25 -5.4166665 85.416664
3.25 -3.25 85.416664
3.25 -1.0833334 85.416664
3.25 1.0833334 85.416664
3.25 3.25 85.416664
3.25 5.4166665 85.416664
3.25 7.5833335 85.416664
3.25 9.75 85.416664
3.25 11.916667 85.416664
3.25 14.083333 85.416664
3.25 16.25 85.416664
3.25 18.416666 85.416664
3.25 20.583334 85.416664
3.25 22.75 85.416664
3.25 24.916666 85.416664
3.25 27.083334 85.416664
3.25 29.25 85.416664
3.25 31.416666 85.416664
3.25 33.583332 85.416664
3.25 35.75 85.416664
3.25 37.916668 85.416664
3.25 -29.25 83.25
3.25 -27.083334 83.25
3.25 -24.916666 83.25
3.25 -22.75 83.25
3.25 -20.583334 83.25
3.25 -18.416666 83.25
3.25 -16.25 83.25
3.25 -14.083333 83.25
3.25 -11.916667 83.25
3.25 -9.75 83.25
3.25 -7.5833335 83.25
3.25 -5.4166665 83.25
3.25 -3.25 83.25
3.25 -1.0833334 83.25
3.25 1.0833334 83.25
3.25 3.25 83.25
3.25 5.4166665 83.25
3.25 7.5833335 83.25
3.25 9.75 83.25
3.25 11.916667 83.25
3.25 14.083333 83.25
3.25 16.25 83.25
3.25 18.416666 83.25
3.25 20.583334 83.25
3.25 22.75 83.25
3.25 24.916666 83.25
3.25 27.083334 83.25
3.25 29.25 83.25
3.25 31.416666 83.25
3.25 33.583332 83.25
3.25 35.75 83.25
3.25 -29.25 81.083336
3.25 -27.083334 81.083336
3.25 -24.916666 81.083336
3.25 -22.75 81.083336
3.25 -20.583334 81.083336
3.25 -18.416666 81.083336
3.25 -16.25 81.083336
3.25 -14.083333 81.083336
3.25 -11.916667 81.083336
3.25 -9.75 81.083336
3.25 -7.5833335 81.083336
3.25 -5.4166665 81.083336
3.25 -3.25 81.083336
3.25 -1.0833334 81.083336
3.25 1.0833334 81.083336
3.25 3.25 81.083336
3.25 5.4166665 81.083336
3.25 7.5833335 81.083336
3.25 9.75 81.083336
3.25 11.916667 81.083336
3.25 14.083333 81.083336
3.25 16.25 81.083336
3.25 18.416666 81.083336
3.25 20.583334 81.083336
3.25 22.75 81.083336
3.25 24.916666 81.083336
3.25 27.083334 81.083336
3.25 29.25 81.083336
1.0833334 -22.75 163.41667
1.0833334 -20.583334 163.41667
1.0833334 -18.416666 163.41667
1.0833334 -16.25 163.41667
1.0833334 -14.083333 163.41667
1.0833334 -31.416666 161.25
1.0833334 -29.25 161.25
1.0833334 -27.083334 161.25
1.0833334 -24.916666 161.25
1.0833334 -22.75 161.25
1.0833334 -20.583334 161.25
1.0833334 -18.416666 161.25
1.0833334 -16.25 161.25
1.0833334 -14.083333 161.25
1.0833334 -11.916667 161.25
1.0833334 -9.75 161.25
1.0833334 -7.5833335 161.25
1.0833334 -5.4166665 161.25
1.0833334 -3.25 161.25
1.0833334 -33.583332 159.08333
1.0833334 -31.416666 159.08333
1.0833334 -29.25 159.08333
1.0833334 -27.083334 159.08333
1.0833334 -24.916666 159.08333
1.0833334 -22.75 159.08333
1.0833334 -20.583334 159.08333
1.0833334 -18.416666 159.08333
1.0833334 -16.25 159.08333
1.0833334 -14.083333 159.08333
1.0833334 -11.916667 159.08333
1.0833334 -9.75 159.08333
1.0833334 -7.5833335 159.08333
1.0833334 -5.4166665 159.08333
1.0833334 -3.25 159.08333
1.0833334 -1.0833334 159.08333
1.0833334 1.0833334 159.08333
1.0833334 3.25 159.08333
1.0833334 5.4166665 159.08333
1.0833334 7.5833335 159.08333
1.0833334 -33.583332 156.91667
1.0833334 -31.416666 156.91667
1.0833334 -29.25 156.91667
1.0833334 -27.083334 156.91667
1.0833334 -24.916666 156.91667
1.0833334 -22.75 156.91667
1.0833334 -20.583334 156.91667
1.0833334 -18.416666 156.91667
1.0833334 -16.25 156.91667
1.0833334 -14.083333 156.91667
1.0833334 -11.916667 156.91667
1.0833334 -9.75 156.91667
1.0833334 -7.5833335 156.91667
1.0833334 -5.4166665 156.91667
1.0833334 -3.25 156.91667
1.0833334 -1.0833334 156.91667
1.0833334 1.0833334 156.91667
1.0833334 3.25 156.91667
1.0833334 5.4166665 156.91667
1.0833334 7.5833335 156.91667
1.0833334 9.75 156.91667
1.0833334 11.916667 156.91667
1.0833334 14.083333 156.91667
1.0833334 -35.75 154.75
1.0833334 -33.583332 154.75
1.0833334 -31.416666 154.75
1.0833334 -29.25 154.75
1.0833334 -27.083334 154.75
1.0833334 -24.916666 154.75
1.0833334 -22.75 154.75
1.0833334 -20.583334 154.75
1.0833334 -18.416666 154.75
1.0833334 -16.25 154.75
1.0833334 -14.083333 154.75
1.0833334 -11.916667 154.75
1.0833334 -9.75 154.75
1.0833334 -7.5833335 154.75
1.0833334 -5.4166665 154.75
1.0833334 -3.25 154.75
1.0833334 -1.0833334 154.75
1.0833334 1.0833334 154.75
1.0833334 3.25 154.75
1.0833334 5.4166665 154.75
1.0833334 7.5833335 154.75
1.0833334 9.75 154.75
1.0833334 -35.75 152.58333
1.0833334 -33.583332 152.58333
1.0833334 -31.416666 152.58333
1.0833334 -29.25 152.58333
1.0833334 -27.083334 152.58333
1.0833334 -24.916666 152.58333
1.0833334 -22.75 152.58333
1.0833334 -20.583334 152.58333
1.0833334 -18.416666 152.58333
1.0833334 -16.25 152.58333
1.0833334 -14.083333 152.58333
1.0833334 -11.916667 152.58333
1.0833334 -9.75 152.58333
1.0833334 -7.5833335 152.58333
1.0833334 -5.4166665 152.58333
1.0833334 -3.25 152.58333
1.0833334 -1.0833334 152.58333
1.0833334 1.0833334 152.58333
1.0833334 3.25 152.58333
1.0833334 5.4166665 152.58333
1.0833334 7.5833335 152.58333
1.0833334 9.75 152.58333
1.0833334 -33.583332 150.41667
1.0833334 -31.416666 150.41667
1.0833334 -29.25 150.41667
1.0833334 -27.083334 150.41667
1.0833334 -24.916666 150.41667
1.0833334 -22.75 150.41667
1.0833334 -20.583334 150.41667
1.0833334 -18.416666 150.41667
1.0833334 -16.25 150.41667
1.0833334 -14.083333 150.41667
1.0833334 -11.916667 150.41667
1.0833334 -9.75 150.41667
1.0833334 -7.5833335 150.41667
1.0833334 -5.4166665 150.41667
1.0833334 -3.25 150.41667
1.0833334 -1.0833334 150.41667
1.0833334 1.0833334 150.41667
1.0833334 3.25 150.41667
1.0833334 5.4166665 150.41667
1.0833334 7.5833335 150.41667
1.0833334 9.75 150.41667
1.0833334 11.916667 150.41667
1.0833334 -31.416666 148.25
1.0833334 -29.25 148.25
1.0833334 -27.083334 148.25
1.0833334 -24.916666 148.25
1.0833334 -22.75 148.25
1.0833334 -20.583334 148.25
1.0833334 -18.416666 148.25
1.0833334 -16.25 148.25
1.0833334 -14.083333 148.25
1.0833334 -11.916667 148.25
1.0833334 -9.75 148.25
1.0833334 -7.5833335 148.25
1.0833334 -5.4166665 148.25
1.0833334 -3.25 148.25
1.0833334 -1.0833334 148.25
1.0833334 1.0833334 148.25
1.0833334 3.25 148.25
1.0833334 5.4166665 148.25
1.0833334 7.5833335 148.25
1.0833334 9.75 148.25
1.0833334 11.916667 148.25
1.0833334 -31.416666 146.08333
1.0833334 -29.25 146.08333
1.0833334 -27.083334 146.08333
1.0833334 -24.916666 146.08333
1.0833334 -22.75 146.08333
1.0833334 -20.583334 146.08333
1.0833334 -18.416666 146.08333
1.0833334 -16.25 146.08333
1.0833334 -14.083333 146.08333
1.0833334 -11.916667 146.08333
1.0833334 -9.75 146.08333
1.0833334 -7.5833335 146.08333
1.0833334 -5.4166665 146.08333
1.0833334 -3.25 146.08333
1.0833334 -1.0833334 146.08333
1.0833334 1.0833334 146.08333
1.0833334 3.25 146.08333
1.0833334 5.4166665 146.08333
1.0833334 7.5833335 146.08333
1.0833334 9.75 146.08333
1.0833334 11.916667 146.08333
1.0833334 -31.416666 143.91667
1.0833334 -29.25 143.91667
1.0833334 -27.083334 143.91667
1.0833334 -24.916666 143.91667
1.0833334 -22.75 143.91667
1.0833334 -20.583334 143.91667
1.0833334 -18.416666 143.91667
1.0833334 -16.25 143.91667
1.0833334 -14.083333 143.91667
1.0833334 -11.916667 143.91667
1.0833334 -9.75 143.91667
1.0833334 -7.5833335 143.91667
1.0833334 -5.4166665 143.91667
1.0833334 -3.25 143.91667
1.0833334 -1.0833334 143.91667
1.0833334 1.0833334 143.91667
1.0833334 3.25 143.91667
1.0833334 5.4166665 143.91667
1.0833334 7.5833335 143.91667
1.0833334 9.75 143.91667
1.0833334 11.916667 143.91667
1.0833334 -27.083334 141.75
1.0833334 -24.916666 141.75
1.0833334 -22.75 141.75
1.0833334 -20.583334 141.75
1.0833334 -18.416666 141.75
1.0833334 -16.25 141.75
1.0833334 -14.083333 141.75
1.0833334 -11.916667 141.75
1.0833334 -9.75 141.75
1.0833334 -7.5833335 141.75
1.0833334 -5.4166665 141.75
1.0833334 -3.25 141.75
1.0833334 -1.0833334 141.75
1.0833334 1.0833334 141.75
1.0833334 3.25 141.75
1.0833334 5.4166665 141.75
1.0833334 7.5833335 141.75
1.0833334 9.75 141.75
1.0833334 11.916667 141.75
1.0833334 -24.916666 139.58333
1.0833334 -22.75 139.58333
1.0833334 -20.583334 139.58333
1.0833334 -18.416666 139.58333
1.0833334 -16.25 139.58333
1.0833334 -14.083333 139.58333
1.0833334 -11.916667 139.58333
1.0833334 -9.75 139.58333
1.0833334 -7.5833335 139.58333
1.0833334 -5.4166665 139.58333
1.0833334 -3.25 139.58333
1.0833334 -1.0833334 139.58333
1.0833334 1.0833334 139.58333
1.0833334 3.25 139.58333
1.0833334 5.4166665 139.58333
1.0833334 7.5833335 139.58333
1.0833334 9.75 139.58333
1.0833334 11.916667 139.58333
1.0833334 14.083333 139.58333
1.0833334 -24.916666 137.41667
1.0833334 -22.75 137.41667
1.0833334 -20.583334 137.41667
1.0833334 -18.416666 137.41667
1.0833334 -16.25 137.41667
1.0833334 -14.083333 137.41667
1.0833334 -11.916667 137.41667
1.0833334 -9.75 137.41667
1.0833334 -7.5833335 137.41667
1.0833334 -5.4166665 137.41667
1.0833334 -3.25 137.41667
1.0833334 -1.0833334 137.41667
1.0833334 1.0833334 137.41667
1.0833334 3.25 137.41667
1.0833334 5.4166665 137.41667
1.0833334 7.5833335 137.41667
1.0833334 9.75 137.41667
1.0833334 11.916667 137.41667
1.0833334 -24.916666 135.25
1.0833334 -22.75 135.25
1.0833334 -20.583334 135.25
1.0833334 -18.416666 135.25
1.0833334 -16.25 135.25
1.0833334 -14.083333 135.25
1.0833334 -11.916667 135.25
1.0833334 -9.75 135.25
1.0833334 -7.5833335 135.25
1.0833334 -5.4166665 135.25
1.0833334 -3.25 135.25
1.0833334 -1.0833334 135.25
1.0833334 1.0833334 135.25
1.0833334 3.25 135.25
1.0833334 5.4166665 135.25
1.0833334 7.5833335 135.25
1.0833334 9.75 135.25
1.0833334 11.916667 135.25
1.0833334 -24.916666 133.08333
1.0833334 -22.75 133.08333
1.0833334 -20.583334 133.08333
1.0833334 -18.416666 133.08333
1.0833334 -16.25 133.08333
1.0833334 -14.083333 133.08333
1.0833334 -11.916667 133.08333
1.0833334 -9.75 133.08333
1.0833334 -7.5833335 133.08333
1.0833334 -5.4166665 133.08333
1.0833334 -3.25 133.08333
1.0833334 -1.0833334 133.08333
1.0833334 1.0833334 133.08333
1.0833334 3.25 133.08333
1.0833334 5.4166665 133.08333
1.0833334 7.5833335 133.08333
1.0833334 9.75 133.08333
1.0833334 11.916667 133.08333
1.0833334 -24.916666 130.91667
1.0833334 -22.75 130.91667
1.0833334 -20.583334 130.91667
1.0833334 -18.416666 130.91667
1.0833334 -16.25 130.91667
1.0833334 -14.083333 130.91667
1.0833334 -11.916667 130.91667
1.0833334 -9.75 130.91667
1.0833334 -7.5833335 130.91667
1.0833334 -5.4166665 130.91667
1.0833334 -3.25 130.91667
1.0833334 -1.0833334 130.91667
1.0833334 1.0833334 130.91667
1.0833334 3.25 130.91667
1.0833334 5.4166665 130.91667
1.0833334 7.5833335 130.91667
1.0833334 9.75 130.91667
1.0833334 11.916667 130.91667
1.0833334 -24.916666 128.75
1.0833334 -22.75 128.75
1.0833334 -20.583334 128.75
1.0833334 -18.416666 128.75
1.0833334 -16.25 128.75
1.0833334 -14.083333 128.75
1.0833334 -11.916667 128.75
1.0833334 -9.75 128.75
1.0833334 -7.5833335 128.75
1.0833334 -5.4166665 128.75
1.0833334 -3.25 128.75
1.0833334 -1.0833334 128.75
1.0833334 1.0833334 128.75
1.0833334 3.25 128.75
1.0833334 5.4166665 128.75
1.0833334 7.5833335 128.75
1.0833334 9.75 128.75
1.0833334 11.916667 128.75
1.0833334 14.083333 128.75
1.0833334 -24.916666 126.583336
1.0833334 -22.75 126.583336
1.0833334 -20.583334 126.583336
1.0833334 -18.416666 126.583336
1.0833334 -16.25 126.583336
1.0833334 -14.083333 126.583336
1.0833334 -11.916667 126.583336
1.0833334 -9.75 126.583336
1.0833334 -7.5833335 126.583336
1.0833334 -5.4166665 126.583336
1.0833334 -3.25 126.583336
1.0833334 -1.0833334 126.583336
1.0833334 1.0833334 126.583336
1.0833334 3.25 126.583336
1.0833334 5.4166665 126.583336
1.0833334 7.5833335 126.583336
1.0833334 9.75 126.583336
1.0833334 11.916667 126.583336
1.0833334 14.083333 126.583336
1.0833334 -27.083334 124.416664
1.0833334 -24.916666 124.416664
1.0833334 -22.75 124.416664
1.0833334 -20.583334 124.416664
1.0833334 -18.416666 124.416664
1.0833334 -16.25 124.416664
1.0833334 -14.083333 124.416664
1.0833334 -11.916667 124.416664
1.0833334 -9.75 124.416664
1.0833334 -7.5833335 124.416664
1.0833334 -5.4166665 124.416664
1.0833334 -3.25 124.416664
1.0833334 -1.0833334 124.416664
1.0833334 1.0833334 124.416664
1.0833334 3.25 124.416664
1.0833334 5.4166665 124.416664
1.0833334 7.5833335 124.416664
1.0833334 9.75 124.416664
1.0833334 11.916667 124.416664
1.0833334 14.083333 124.416664
1.0833334 16.25 124.416664
1.0833334 18.416666 124.416664
1.0833334 -27.083334 122.25
1.0833334 -24.916666 122.25
1.0833334 -22.75 122.25
1.0833334 -20.583334 122.25
1.0833334 -18.416666 122.25
1.0833334 -16.25 122.25
1.0833334 -14.083333 122.25
1.0833334 -11.916667 122.25
1.0833334 -9.75 122.25
1.0833334 -7.5833335 122.25
1.0833334 -5.4166665 122.25
1.0833334 -3.25 122.25
1.0833334 -1.0833334 122.25
1.0833334 1.0833334 122.25
1.0833334 3.25 122.25
1.0833334 5.4166665 122.25
1.0833334 7.5833335 122.25
1.0833334 9.75 122.25
1.0833334 11.916667 122.25
1.0833334 14.083333 122.25
1.0833334 16.25 122.25
1.0833334 18.416666 122.25
1.0833334 20.583334 122.25
1.0833334 -27.083334 120.083336
1.0833334 -24.916666 120.083336
1.0833334 -22.75 120.083336
1.0833334 -20.583334 120.083336
1.0833334 -18.416666 120.083336
1.0833334 -16.25 120.083336
1.0833334 -14.083333 120.083336
1.0833334 -11.916667 120.083336
1.0833334 -9.75 120.083336
1.0833334 -7.5833335 120.083336
1.0833334 -5.4166665 120.083336
1.0833334 -3.25 120.083336
1.0833334 -1.0833334 120.083336
1.0833334 1.0833334 120.083336
1.0833334 3.25 120.083336
1.0833334 5.4166665 120.083336
1.0833334 7.5833335 120.083336
1.0833334 9.75 120.083336
1.0833334 11.916667 120.083336
1.0833334 14.083333 120.083336
1.0833334 16.25 120.083336
1.0833334 18.416666 120.083336
1.0833334 20.583334 120.083336
1.0833334 22.75 120.083336
1.0833334 -27.083334 117.916664
1.0833334 -24.916666 117.916664
1.0833334 -22.75 117.916664
1.0833334 -20.583334 117.916664
1.0833334 -18.416666 117.916664
1.0833334 -16.25 117.916664
1.0833334 -14.083333 117.916664
1.0833334 -11.916667 117.916664
1.0833334 -9.75 117.916664
1.0833334 -7.5833335 117.916664
1.0833334 -5.4166665 117.916664
1.0833334 -3.25 117.916664
1.0833334 -1.0833334 117.916664
1.0833334 1.0833334 117.916664
1.0833334 3.25 117.916664
1.0833334 5.4166665 117.916664
1.0833334 7.5833335 117.916664
1.0833334 9.75 117.916664
1.0833334 11.916667 117.916664
1.0833334 14.083333 117.916664
1.0833334 16.25 117.916664
1.0833334 18.416666 117.916664
1.0833334 20.583334 117.916664
1.0833334 22.75 117.916664
1.0833334 24.916666 117.916664
1.0833334 27.083334 117.916664
1.0833334 -27.083334 115.75
1.0833334 -24.916666 115.75
1.0833334 -22.75 115.75
1.0833334 -20.583334 115.75
1.0833334 -18.416666 115.75
1.0833334 -16.25 115.75
1.0833334 -14.083333 115.75
1.0833334 -11.916667 115.75
1.0833334 -9.75 115.75
1.0833334 -7.5833335 115.75
1.0833334 -5.4166665 115.75
1.0833334 -3.25 115.75
1.0833334 -1.0833334 115.75
1.0833334 1.0833334 115.75
1.0833334 3.25 115.75
1.0833334 5.4166665 115.75
1.0833334 7.5833335 115.75
1.0833334 9.75 115.75
1.0833334 11.916667 115.75
1.0833334 14.083333 115.75
1.0833334 16.25 115.75
1.0833334 18.416666 115.75
1.0833334 20.583334 115.75
1.0833334 22.75 115.75
1.0833334 24.916666 115.75
1.0833334 27.083334 115.75
1.0833334 29.25 115.75
1.0833334 -27.083334 113.583336
1.0833334 -24.916666 113.583336
1.0833334 -22.75 113.583336
1.0833334 -20.583334 113.583336
1.0833334 -18.416666 113.583336
1.0833334 -16.25 113.583336
1.0833334 -14.083333 113.583336
1.0833334 -11.916667 113.583336
1.0833334 -9.75 113.583336
1.0833334 -7.5833335 113.583336
1.0833334 -5.4166665 113.583336
1.0833334 -3.25 113.583336
1.0833334 -1.0833334 113.583336
1.0833334 1.0833334 113.583336
1.0833334 3.25 113.583336
1.0833334 5.4166665 113.583336
1.0833334 7.5833335 113.583336
1.0833334 9.75 113.583336
1.0833334 11.916667 113.583336
1.0833334 14.083333 113.583336
1.0833334 16.25 113.583336
1.0833334 18.416666 113.583336
1.0833334 20.583334 113.583336
1.0833334 22.75 113.583336
1.0833334 24.916666 113.583336
1.0833334 27.083334 113.583336
1.0833334 29.25 113.583336
1.0833334 -27.083334 111.416664
1.0833334 -24.916666 111.416664
1.0833334 -22.75 111.416664
1.0833334 -20.583334 111.416664
1.0833334 -18.416666 111.416664
1.0833334 -16.25 111.416664
1.0833334 -14.083333 111.416664
1.0833334 -11.916667 111.416664
1.0833334 -9.75 111.416664
1.0833334 -7.5833335 111.416664
1.0833334 -5.4166665 111.416664
1.0833334 -3.25 111.416664
1.0833334 -1.0833334 111.416664
1.0833334 1.0833334 111.416664
1.0833334 3.25 111.416664
1.0833334 5.4166665 111.416664
1.0833334 7.5833335 111.416664
1.0833334 9.75 111.416664
1.0833334 11.916667 111.416664
1.0833334 14.083333 111.416664
1.0833334 16.25 111.416664
1.0833334 18.416666 111.416664
1.0833334 20.583334 111.416664
1.0833334 22.75 111.416664
1.0833334 24.916666 111.416664
1.0833334 27.083334 111.416664
1.0833334 29.25 111.416664
1.0833334 31.416666 111.416664
1.0833334 -24.916666 109.25
1.0833334 -22.75 109.25
1.0833334 -20.583334 109.25
1.0833334 -18.416666 109.25
1.0833334 -16.25 109.25
1.0833334 -14.083333 109.25
1.0833334 -11.916667 109.25
1.0833334 -9.75 109.25
1.0833334 -7.5833335 109.25
1.0833334 -5.4166665 109.25
1.0833334 -3.25 109.25
1.0833334 -1.0833334 109.25
1.0833334 1.0833334 109.25
1.0833334 3.25 109.25
1.0833334 5.4166665 109.25
1.0833334 7.5833335 109.25
1.0833334 9.75 109.25
1.0833334 11.916667 109.25
1.0833334 14.083333 109.25
1.0833334 16.25 109.25
1.0833334 18.416666 109.25
1.0833334 20.583334 109.25
1.0833334 22.75 109.25
1.0833334 24.916666 109.25
1.0833334 27.083334 109.25
1.0833334 29.25 109.25
1.0833334 31.416666 109.25
1.0833334 33.583332 109.25
1.0833334 -24.916666 107.083336
1.0833334 -22.75 107.083336
1.0833334 -20.583334 107.083336
1.0833334 -18.416666 107.083336
1.0833334 -16.25 107.083336
1.0833334 -14.083333 107.083336
1.0833334 -11.916667 107.083336
1.0833334 -9.75 107.083336
1.0833334 -7.5833335 107.083336
1.0833334 -5.4166665 107.083336
1.0833334 -3.25 107.083336
1.0833334 -1.0833334 107.083336
1.0833334 1.0833334 107.083336
1.0833334 3.25 107.083336
1.0833334 5.4166665 107.083336
1.0833334 7.5833335 107.083336
1.0833334 9.75 107.083336
1.0833334 11.916667 107.083336
1.0833334 14.083333 107.083336
1.0833334 16.25 107.083336
1.0833334 18.416666 107.083336
1.0833334 20.583334 107.083336
1.0833334 22.75 107.083336
1.0833334 24.916666 107.083336
1.0833334 27.083334 107.083336
1.0833334 29.25 107.083336
1.0833334 31.416666 107.083336
1.0833334 33.583332 107.083336
1.0833334 -24.916666 104.916664
1.0833334 -22.75 104.916664
1.0833334 -20.583334 104.916664
1.0833334 -18.416666 104.916664
1.0833334 -16.25 104.916664
1.0833334 -14.083333 104.916664
1.0833334 -11.916667 104.916664
1.0833334 -9.75 104.916664
1.0833334 -7.5833335 104.916664
1.0833334 -5.4166665 104.916664
1.0833334 -3.25 104.916664
1.0833334 -1.0833334 104.916664
1.0833334 1.0833334 104.916664
1.0833334 3.25 104.916664
1.0833334 5.4166665 104.916664
1.0833334 7.5833335 104.916664
1.0833334 9.75 104.916664
1.0833334 11.916667 104.916664
1.0833334 14.083333 104.916664
1.0833334 16.25 104.916664
1.0833334 18.416666 104.916664
1.0833334 20.583334 104.916664
1.0833334 22.75 104.916664
1.0833334 24.916666 104.916664
1.0833334 27.083334 104.916664
1.0833334 29.25 104.916664
1.0833334 31.416666 104.916664
1.0833334 33.583332 104.916664
1.0833334 35.75 104.916664
1.0833334 -22.75 102.75
1.0833334 -20.583334 102.75
1.0833334 -18.416666 102.75
1.0833334 -16.25 102.75
1.0833334 -14.083333 102.75
1.0833334 -11.916667 102.75
1.0833334 -9.75 102.75
1.0833334 -7.5833335 102.75
1.0833334 -5.4166665 102.75
1.0833334 -3.25 102.75
1.0833334 -1.0833334 102.75
1.0833334 1.0833334 102.75
1.0833334 3.25 102.75
1.0833334 5.4166665 102.75
1.0833334 7.5833335 102.75
1.0833334 9.75 102.75
1.0833334 11.916667 102.75
1.0833334 14.083333 102.75
1.0833334 16.25 102.75
1.0833334 18.416666 102.75
1.0833334 20.583334 102.75
1.0833334 22.75 102.75
1.0833334 24.916666 102.75
1.0833334 27.083334 102.75
1.0833334 29.25 102.75
1.0833334 31.416666 102.75
1.0833334 33.583332 102.75
1.0833334 35.75 102.75
1.0833334 -20.583334 100.583336
1.0833334 -18.416666 100.583336
1.0833334 -16.25 100.583336
1.0833334 -14.083333 100.583336
1.0833334 -11.916667 100.583336
1.0833334 -9.75 100.583336
1.0833334 -7.5833335 100.583336
1.0833334 -5.4166665 100.583336
1.0833334 -3.25 100.583336
1.0833334 -1.0833334 100.583336
1.0833334 1.0833334 100.583336
1.0833334 3.25 100.583336
1.0833334 5.4166665 100.583336
1.0833334 7.5833335 100.583336
1.0833334 9.75 100.583336
1.0833334 11.916667 100.583336
1.0833334 14.083333 100.583336
1.0833334 16.25 100.583336
1.0833334 18.416666 100.583336
1.0833334 20.583334 100.583336
1.0833334 22.75 100.583336
1.0833334 24.916666 100.583336
1.0833334 27.083334 100.583336
1.0833334 29.25 100.583336
1.0833334 31.416666 100.583336
1.0833334 33.583332 100.583336
1.0833334 35.75 100.583336
1.0833334 37.916668 100.583336
1.0833334 -20.583334 98.416664
1.0833334 -18.416666 98.416664
1.0833334 -16.25 98.416664
1.0833334 -14.083333 98.416664
1.0833334 -11.916667 98.416664
1.0833334 -9.75 98.416664
1.0833334 -7.5833335 98.416664
1.0833334 -5.4166665 98.416664
1.0833334 -3.25 98.416664
1.0833334 -1.0833334 98.416664
1.0833334 1.0833334 98.416664
1.0833334 3.25 98.416664
1.0833334 5.4166665 98.416664
1.0833334 7.5833335 98.416664
1.0833334 9.75 98.416664
1.0833334 11.916667 98.416664
1.0833334 14.083333 98.416664
1.0833334 16.25 98.416664
1.0833334 18.416666 98.416664
1.0833334 20.583334 98.416664
1.0833334 22.75 98.416664
1.0833334 24.916666 98.416664
1.0833334 27.083334 98.416664
1.0833334 29.25 98.416664
1.0833334 31.416666 98.416664
1.0833334 33.583332 98.416664
1.0833334 35.75 98.416664
1.0833334 37.916668 98.416664
1.0833334 -18.416666 96.25
1.0833334 -16.25 96.25
1.0833334 -14.083333 96.25
1.0833334 -11.916667 96.25
1.0833334 -9.75 96.25
1.0833334 -7.5833335 96.25
1.0833334 -5.4166665 96.25
1.0833334 -3.25 96.25
1.0833334 -1.0833334 96.25
1.0833334 1.0833334 96.25
1.0833334 3.25 96.25
1.0833334 5.4166665 96.25
1.0833334 7.5833335 96.25
1.0833334 9.75 96.25
1.0833334 11.916667 96.25
1.0833334 14.083333 96.25
1.0833334 16.25 96.25
1.0833334 18.416666 96.25
1.0833334 20.583334 96.25
1.0833334 22.75 96.25
1.0833334 24.916666 96.25
1.0833334 27.083334 96.25
1.0833334 29.25 96.25
1.0833334 31.416666 96.25
1.0833334 33.583332 96.25
1.0833334 35.75 96.25
1.0833334 37.916668 96.25
1.0833334 -16.25 94.083336
1.0833334 -14.083333 94.083336
1.0833334 -11.916667 94.083336
1.0833334 -9.75 94.083336
1.0833334 -7.5833335 94.083336
1.0833334 -5.4166665 94.083336
1.0833334 -3.25 94.083336
1.0833334 -1.0833334 94.083336
1.0833334 1.0833334 94.083336
1.0833334 3.25 94.083336
1.0833334 5.4166665 94.083336
1.0833334 7.5833335 94.083336
1.0833334 9.75 94.083336
1.0833334 11.916667 94.083336
1.0833334 14.083333 94.083336
1.0833334 16.25 94.083336
1.0833334 18.416666 94.083336
1.0833334 20.583334 94.083336
1.0833334 22.75 94.083336
1.0833334 24.916666 94.083336
1.0833334 27.083334 94.083336
1.0833334 29.25 94.083336
1.0833334 31.416666 94.083336
1.0833334 33.583332 94.083336
1.0833334 35.75 94.083336
1.0833334 37.916668 94.083336
1.0833334 -16.25 91.916664
1.0833334 -14.083333 91.916664
1.0833334 -11.916667 91.916664
1.0833334 -9.75 91.916664
1.0833334 -7.5833335 91.916664
1.0833334 -5.4166665 91.916664
1.0833334 -3.25 91.916664
1.0833334 -1.0833334 91.916664
1.0833334 1.0833334 91.916664
1.0833334 3.25 91.916664
1.0833334 5.4166665 91.916664
1.0833334 7.5833335 91.916664
1.0833334 9.75 91.916664
1.0833334 11.916667 91.916664
1.0833334 14.083333 91.916664
1.0833334 16.25 91.916664
1.0833334 18.416666 91.916664
1.0833334 20.583334 91.916664
1.0833334 22.75 91.916664
1.0833334 24.916666 91.916664
1.0833334 27.083334 91.916664
1.0833334 29.25 91.916664
1.0833334 31.416666 91.916664
1.0833334 33.583332 91.916664
1.0833334 35.75 91.916664
1.0833334 37.916668 91.916664
1.0833334 40.083332 91.916664
1.0833334 -20.583334 89.75
1.0833334 -18.416666 89.75
1.0833334 -16.25 89.75
1.0833334 -14.083333 89.75
1.0833334 -11.916667 89.75
1.0833334 -9.75 89.75
1.0833334 -7.5833335 89.75
1.0833334 -5.4166665 89.75
1.0833334 -3.25 89.75
1.0833334 -1.0833334 89.75
1.0833334 1.0833334 89.75
1.0833334 3.25 89.75
1.0833334 5.4166665 89.75
1.0833334 7.5833335 89.75
1.0833334 9.75 89.75
1.0833334 11.916667 89.75
1.0833334 14.083333 89.75
1.0833334 16.25 89.75
1.0833334 18.416666 89.75
1.0833334 20.583334 89.75
1.0833334 22.75 89.75
1.0833334 24.916666 89.75
1.0833334 27.083334 89.75
1.0833334 29.25 89.75
1.0833334 31.416666 89.75
1.0833334 33.583332 89.75
1.0833334 35.75 89.75
1.0833334 37.916668 89.75
1.0833334 40.083332 89.75
1.0833334 -24.916666 87.583336
1.0833334 -22.75 87.583336
1.0833334 -20.583334 87.583336
1.0833334 -18.416666 87.583336
1.0833334 -16.25 87.583336
1.0833334 -14.083333 87.583336
1.0833334 -11.916667 87.583336
1.0833334 -9.75 87.583336
1.0833334 -7.5833335 87.583336
1.0833334 -5.4166665 87.583336
1.0833334 -3.25 87.583336
1.0833334 -1.0833334 87.583336
1.0833334 1.0833334 87.583336
1.0833334 3.25 87.583336
1.0833334 5.4166665 87.583336
1.0833334 7.5833335 87.583336
1.0833334 9.75 87.583336
1.0833334 11.916667 87.583336
1.0833334 14.083333 87.583336
1.0833334 16.25 87.583336
1.0833334 18.416666 87.583336
1.0833334 20.583334 87.583336
1.0833334 22.75 87.583336
1.0833334 24.916666 87.583336
1.0833334 27.083334 87.583336
1.0833334 29.25 87.583336
1.0833334 31.416666 87.583336
1.0833334 33.583332 87.583336
1.0833334 35.75 87.583336
1.0833334 37.916668 87.583336
1.0833334 40.083332 87.583336
1.0833334 -27.083334 85.416664
1.0833334 -24.916666 85.416664
1.0833334 -22.75 85.416664
1.0833334 -20.583334 85.416664
1.0833334 -18.416666 85.416664
1.0833334 -16.25 85.416664
1.0833334 -14.083333 85.416664
1.0833334 -11.916667 85.416664
1.0833334 -9.75 85.416664
1.0833334 -7.5833335 85.416664
1.0833334 -5.4166665 85.416664
1.0833334 -3.25 85.416664
1.0833334 -1.0833334 85.416664
1.0833334 1.0833334 85.416664
1.0833334 3.25 85.416664
1.0833334 5.4166665 85.416664
1.0833334 7.5833335 85.416664
1.0833334 9.75 85.416664
1.0833334 11.916667 85.416664
1.0833334 14.083333 85.416664
1.0833334 16.25 85.416664
1.0833334 18.416666 85.416664
1.0833334 20.583334 85.416664
1.0833334 22.75 85.416664
1.0833334 24.916666 85.416664
1.0833334 27.083334 85.416664
1.0833334 29.25 85.416664
1.0833334 31.416666 85.416664
1.0833334 33.583332 85.416664
1.0833334 35.75 85.416664
1.0833334 37.916668 85.416664
1.0833334 -29.25 83.25
1.0833334 -27.083334 83.25
1.0833334 -24.916666 83.25
1.0833334 -22.75 83.25
1.0833334 -20.583334 83.25
1.0833334 -18.416666 83.25
1.0833334 -16.25 83.25
1.0833334 -14.083333 83.25
1.0833334 -11.916667 83.25
1.0833334 -9.75 83.25
1.0833334 -7.5833335 83.25
1.0833334 -5.4166665 83.25
1.0833334 -3.25 83.25
1.0833334 -1.0833334 83.25
1.0833334 1.0833334 83.25
1.0833334 3.25 83.25
1.0833334 5.4166665 83.25
1.0833334 7.5833335 83.25
1.0833334 9.75 83.25
1.0833334 11.916667 83.25
1.0833334 14.083333 83.25
1.0833334 16.25 83.25
1.0833334 18.416666 83.25
1.0833334 20.583334 83.25
1.0833334 22.75 83.25
1.0833334 24.916666 83.25
1.0833334 27.083334 83.25
1.0833334 29.25 83.25
1.0833334 31.416666 83.25
1.0833334 33.583332 83.25
1.0833334 35.75 83.25
1.0833334 -29.25 81.083336
1.0833334 -27.083334 81.083336
1.0833334 -24.916666 81.083336
1.0833334 -22.75 81.083336
1.0833334 -20.583334 81.083336
1.0833334 -18.416666 81.083336
1.0833334 -16.25 81.083336
1.0833334 -14.083333 81.083336
1.0833334 -11.916667 81.083336
1.0833334 -9.75 81.083336
1.0833334 -7.5833335 81.083336
1.0833334 -5.4166665 81.083336
1.0833334 -3.25 81.083336
1.0833334 -1.0833334 81.083336
1.0833334 1.0833334 81.083336
1.0833334 3.25 81.083336
1.0833334 5.4166665 81.083336
1.0833334 7.5833335 81.083336
1.0833334 9.75 81.083336
1.0833334 11.916667 81.083336
1.0833334 14.083333 81.083336
1.0833334 16.25 81.083336
1.0833334 18.416666 81.083336
1.0833334 20.583334 81.083336
1.0833334 22.75 81.083336
1.0833334 24.916666 81.083336
1.0833334 27.083334 81.083336
1.0833334 29.25 81.083336
-1.0833334 -29.25 163.41667
-1.0833334 -27.083334 163.41667
-1.0833334 -24.916666 163.41667
-1.0833334 -22.75 163.41667
-1.0833334 -20.583334 163.41667
-1.0833334 -18.416666 163.41667
-1.0833334 -16.25 163.41667
-1.0833334 -14.083333 163.41667
-1.0833334 -33.583332 161.25
-1.0833334 -31.416666 161.25
-1.0833334 -29.25 161.25
-1.0833334 -27.083334 161.25
-1.0833334 -24.916666 161.25
-1.0833334 -22.75 161.25
-1.0833334 -20.583334 161.25
-1.0833334 -18.416666 161.25
-1.0833334 -16.25 161.25
-1.0833334 -14.083333 161.25
-1.0833334 -11.916667 161.25
-1.0833334 -9.75 161.25
-1.0833334 -7.5833335 161.25
-1.0833334 -5.4166665 161.25
-1.0833334 -3.25 161.25
-1.0833334 -35.75 159.08333
-1.0833334 -33.583332 159.08333
-1.0833334 -31.416666 159.08333
-1.0833334 -29.25 159.08333
-1.0833334 -27.083334 159.08333
-1.0833334 -24.916666 159.08333
-1.0833334 -22.75 159.08333
-1.0833334 -20.583334 159.08333
-1.0833334 -18.416666 159.08333
-1.0833334 -16.25 159.08333
-1.0833334 -14.083333 159.08333
-1.0833334 -11.916667 159.08333
-1.0833334 -9.75 159.08333
-1.0833334 -7.5833335 159.08333
-1.0833334 -5.4166665 159.08333
-1.0833334 -3.25 159.08333
-1.0833334 -1.0833334 159.08333
-1.0833334 1.0833334 159.08333
-1.0833334 5.4166665 159.08333
-1.0833334 7.5833335 159.08333
-1.0833334 14.083333 159.08333
-1.0833334 -37.916668 156.91667
-1.0833334 -35.75 156.91667
-1.0833334 -33.583332 156.91667
-1.0833334 -31.416666 156.91667
-1.0833334 -29.25 156.91667
-1.0833334 -27.083334 156.91667
-1.0833334 -24.916666 156.91667
-1.0833334 -22.75 156.91667
-1.0833334 -20.583334 156.91667
-1.0833334 -18.416666 156.91667
-1.0833334 -16.25 156.91667
-1.0833334 -14.083333 156.91667
-1.0833334 -11.916667 156.91667
-1.0833334 -9.75 156.91667
-1.0833334 -7.5833335 156.91667
-1.0833334 -5.4166665 156.91667
-1.0833334 -3.25 156.91667
-1.0833334 -1.0833334 156.91667
-1.0833334 1.0833334 156.91667
-1.0833334 3.25 156.91667
-1.0833334 5.4166665 156.91667
-1.0833334 7.5833335 156.91667
-1.0833334 9.75 156.91667
-1.0833334 11.916667 156.91667
-1.0833334 14.083333 156.91667
-1.0833334 16.25 156.91667
-1.0833334 -37.916668 154.75
-1.0833334 -35.75 154.75
-1.0833334 -33.583332 154.75
-1.0833334 -31.416666 154.75
-1.0833334 -29.25 154.75
-1.0833334 -27.083334 154.75
-1.0833334 -24.916666 154.75
-1.0833334 -22.75 154.75
-1.0833334 -20.583334 154.75
-1.0833334 -18.416666 154.75
-1.0833334 -16.25 154.75
-1.0833334 -14.083333 154.75
-1.0833334 -11.916667 154.75
-1.0833334 -9.75 154.75
-1.0833334 -7.5833335 154.75
-1.0833334 -5.4166665 154.75
-1.0833334 -3.25 154.75
-1.0833334 -1.0833334 154.75
-1.0833334 1.0833334 154.75
-1.0833334 3.25 154.75
-1.0833334 5.4166665 154.75
-1.0833334 7.5833335 154.75
-1.0833334 9.75 154.75
-1.0833334 -37.916668 152.58333
-1.0833334 -35.75 152.58333
-1.0833334 -33.583332 152.58333
-1.0833334 -31.416666 152.58333
-1.0833334 -29.25 152.58333
-1.0833334 -27.083334 152.58333
-1.0833334 -24.916666 152.58333
-1.0833334 -22.75 152.58333
-1.0833334 -20.583334 152.58333
-1.0833334 -18.416666 152.58333
-1.0833334 -16.25 152.58333
-1.0833334 -14.083333 152.58333
-1.0833334 -11.916667 152.58333
-1.0833334 -9.75 152.58333
-1.0833334 -7.5833335 152.58333
-1.0833334 -5.4166665 152.58333
-1.0833334 -3.25 152.58333
-1.0833334 -1.0833334 152.58333
-1.0833334 1.0833334 152.58333
-1.0833334 3.25 152.58333
-1.0833334 5.4166665 152.58333
-1.0833334 7.5833335 152.58333
-1.0833334 9.75 152.58333
-1.0833334 -37.916668 150.41667
-1.0833334 -35.75 150.41667
-1.0833334 -33.583332 150.41667
-1.0833334 -31.416666 150.41667
-1.0833334 -29.25 150.41667
-1.0833334 -27.083334 150.41667
-1.0833334 -24.916666 150.41667
-1.0833334 -22.75 150.41667
-1.0833334 -20.583334 150.41667
-1.0833334 -18.416666 150.41667
-1.0833334 -16.25 150.41667
-1.0833334 -14.083333 150.41667
-1.0833334 -11.916667 150.41667
-1.0833334 -9.75 150.41667
-1.0833334 -7.5833335 150.41667
-1.0833334 -5.4166665 150.41667
-1.0833334 -3.25 150.41667
-1.0833334 -1.0833334 150.41667
-1.0833334 1.0833334 150.41667
-1.0833334 3.25 150.41667
-1.0833334 5.4166665 150.41667
-1.0833334 7.5833335 150.41667
-1.0833334 9.75 150.41667
-1.0833334 11.916667 150.41667
-1.0833334 -35.75 148.25
-1.0833334 -33.583332 148.25
-1.0833334 -31.416666 148.25
-1.0833334 -29.25 148.25
-1.0833334 -27.083334 148.25
-1.0833334 -24.916666 148.25
-1.0833334 -20.583334 148.25
-1.0833334 -18.416666 148.25
-1.0833334 -16.25 148.25
-1.0833334 -14.083333 148.25
-1.0833334 -11.916667 148.25
-1.0833334 -9.75 148.25
-1.0833334 -7.5833335 148.25
-1.0833334 -5.4166665 148.25
-1.0833334 -3.25 148.25
-1.0833334 -1.0833334 148.25
-1.0833334 1.0833334 148.25
-1.0833334 3.25 148.25
-1.0833334 5.4166665 148.25
-1.0833334 7.5833335 148.25
-1.0833334 9.75 148.25
-1.0833334 11.916667 148.25
-1.0833334 -33.583332 146.08333
-1.0833334 -31.416666 146.08333
-1.0833334 -29.25 146.08333
-1.0833334 -27.083334 146.08333
-1.0833334 -24.916666 146.08333
-1.0833334 -22.75 146.08333
-1.0833334 -20.583334 146.08333
-1.0833334 -18.416666 146.08333
-1.0833334 -16.25 146.08333
-1.0833334 -14.083333 146.08333
-1.0833334 -11.916667 146.08333
-1.0833334 -9.75 146.08333
-1.0833334 -7.5833335 146.08333
-1.0833334 -5.4166665 146.08333
-1.0833334 -3.25 146.08333
-1.0833334 -1.0833334 146.08333
-1.0833334 1.0833334 146.08333
-1.0833334 3.25 146.08333
-1.0833334 5.4166665 146.08333
-1.0833334 7.5833335 146.08333
-1.0833334 9.75 146.08333
-1.0833334 11.916667 146.08333
-1.0833334 14.083333 146.08333
-1.0833334 -31.416666 143.91667
-1.0833334 -29.25 143.91667
-1.0833334 -27.083334 143.91667
-1.0833334 -24.916666 143.91667
-1.0833334 -22.75 143.91667
-1.0833334 -20.583334 143.91667
-1.0833334 -18.416666 143.91667
-1.0833334 -16.25 143.91667
-1.0833334 -14.083333 143.91667
-1.0833334 -11.916667 143.91667
-1.0833334 -9.75 143.91667
-1.0833334 -7.5833335 143.91667
-1.0833334 -5.4166665 143.91667
-1.0833334 -3.25 143.91667
-1.0833334 -1.0833334 143.91667
-1.0833334 1.0833334 143.91667
-1.0833334 3.25 143.91667
-1.0833334 5.4166665 143.91667
-1.0833334 7.5833335 143.91667
-1.0833334 9.75 143.91667
-1.0833334 11.916667 143.91667
-1.0833334 14.083333 143.91667
-1.0833334 -29.25 141.75
-1.0833334 -27.083334 141.75
-1.0833334 -24.916666 141.75
-1.0833334 -22.75 141.75
-1.0833334 -20.583334 141.75
-1.0833334 -18.416666 141.75
-1.0833334 -16.25 141.75
-1.0833334 -14.083333 141.75
-1.0833334 -11.916667 141.75
-1.0833334 -9.75 141.75
-1.0833334 -7.5833335 141.75
-1.0833334 -5.4166665 141.75
-1.0833334 -3.25 141.75
-1.0833334 -1.0833334 141.75
-1.0833334 1.0833334 141.75
-1.0833334 3.25 141.75
-1.0833334 5.4166665 141.75
-1.0833334 7.5833335 141.75
-1.0833334 9.75 141.75
-1.0833334 11.916667 141.75
-1.0833334 14.083333 141.75
-1.0833334 -27.083334 139.58333
-1.0833334 -24.916666 139.58333
-1.0833334 -22.75 139.58333
-1.0833334 -20.583334 139.58333
-1.0833334 -18.416666 139.58333
-1.0833334 -16.25 139.58333
-1.0833334 -14.083333 139.58333
-1.0833334 -11.916667 139.58333
-1.0833334 -9.75 139.58333
-1.0833334 -7.5833335 139.58333
-1.0833334 -5.4166665 139.58333
-1.0833334 -3.25 139.58333
-1.0833334 -1.0833334 139.58333
-1.0833334 1.0833334 139.58333
-1.0833334 3.25 139.58333
-1.0833334 5.4166665 139.58333
-1.0833334 7.5833335 139.58333
-1.0833334 9.75 139.58333
-1.0833334 11.916667 139.58333
-1.0833334 14.083333 139.58333
-1.0833334 -24.916666 137.41667
-1.0833334 -22.75 137.41667
-1.0833334 -20.583334 137.41667
-1.0833334 -18.416666 137.41667
-1.0833334 -16.25 137.41667
-1.0833334 -14.083333 137.41667
-1.0833334 -11.916667 137.41667
-1.0833334 -9.75 137.41667
-1.0833334 -7.5833335 137.41667
-1.0833334 -5.4166665 137.41667
-1.0833334 -3.25 137.41667
-1.0833334 -1.0833334 137.41667
-1.0833334 1.0833334 137.41667
-1.0833334 3.25 137.41667
-1.0833334 5.4166665 137.41667
-1.0833334 7.5833335 137.41667
-1.0833334 9.75 137.41667
-1.0833334 11.916667 137.41667
-1.0833334 14.083333 137.41667
-1.0833334 -24.916666 135.25
-1.0833334 -22.75 135.25
-1.0833334 -20.583334 135.25
-1.0833334 -18.416666 135.25
-1.0833334 -16.25 135.25
-1.0833334 -14.083333 135.25
-1.0833334 -11.916667 135.25
-1.0833334 -9.75 135.25
-1.0833334 -7.5833335 135.25
-1.0833334 -5.4166665 135.25
-1.0833334 -3.25 135.25
-1.0833334 -1.0833334 135.25
-1.0833334 1.0833334 135.25
-1.0833334 3.25 135.25
-1.0833334 5.4166665 135.25
-1.0833334 7.5833335 135.25
-1.0833334 9.75 135.25
-1.0833334 11.916667 135.25
-1.0833334 14.083333 135.25
-1.0833334 -24.916666 133.08333
-1.0833334 -22.75 133.08333
-1.0833334 -20.583334 133.08333
-1.0833334 -18.416666 133.08333
-1.0833334 -16.25 133.08333
-1.0833334 -14.083333 133.08333
-1.0833334 -11.916667 133.08333
-1.0833334 -9.75 133.08333
-1.0833334 -7.5833335 133.08333
-1.0833334 -5.4166665 133.08333
-1.0833334 -3.25 133.08333
-1.0833334 -1.0833334 133.08333
-1.0833334 1.0833334 133.08333
-1.0833334 3.25 133.08333
-1.0833334 5.4166665 133.08333
-1.0833334 7.5833335 133.08333
-1.0833334 9.75 133.08333
-1.0833334 11.916667 133.08333
-1.0833334 -24.916666 130.91667
-1.0833334 -22.75 130.91667
-1.0833334 -20.583334 130.91667
-1.0833334 -18.416666 130.91667
-1.0833334 -16.25 130.91667
-1.0833334 -14.083333 130.91667
-1.0833334 -11.916667 130.91667
-1.0833334 -9.75 130.91667
-1.0833334 -7.5833335 130.91667
-1.0833334 -5.4166665 130.91667
-1.0833334 -3.25 130.91667
-1.0833334 -1.0833334 130.91667
-1.0833334 1.0833334 130.91667
-1.0833334 3.25 130.91667
-1.0833334 5.4166665 130.91667
-1.0833334 7.5833335 130.91667
-1.0833334 9.75 130.91667
-1.0833334 11.916667 130.91667
-1.0833334 -24.916666 128.75
-1.0833334 -22.75 128.75
-1.0833334 -20.583334 128.75
-1.0833334 -18.416666 128.75
-1.0833334 -16.25 128.75
-1.0833334 -14.083333 128.75
-1.0833334 -11.916667 128.75
-1.0833334 -9.75 128.75
-1.0833334 -7.5833335 128.75
-1.0833334 -5.4166665 128.75
-1.0833334 -3.25 128.75
-1.0833334 -1.0833334 128.75
-1.0833334 1.0833334 128.75
-1.0833334 3.25 128.75
-1.0833334 5.4166665 128.75
-1.0833334 7.5833335 128.75
-1.0833334 9.75 128.75
-1.0833334 11.916667 128.75
-1.0833334 14.083333 128.75
-1.0833334 -27.083334 126.583336
-1.0833334 -24.916666 126.583336
-1.0833334 -22.75 126.583336
-1.0833334 -20.583334 126.583336
-1.0833334 -18.416666 126.583336
-1.0833334 -16.25 126.583336
-1.0833334 -14.083333 126.583336
-1.0833334 -11.916667 126.583336
-1.0833334 -9.75 126.583336
-1.0833334 -7.5833335 126.583336
-1.0833334 -5.4166665 126.583336
-1.0833334 -3.25 126.583336
-1.0833334 -1.0833334 126.583336
-1.0833334 1.0833334 126.583336
-1.0833334 3.25 126.583336
-1.0833334 5.4166665 126.583336
-1.0833334 7.5833335 126.583336
-1.0833334 9.75 126.583336
-1.0833334 11.916667 126.583336
-1.0833334 14.083333 126.583336
-1.0833334 16.25 126.583336
-1.0833334 -27.083334 124.416664
-1.0833334 -24.916666 124.416664
-1.0833334 -22.75 124.416664
-1.0833334 -20.583334 124.416664
-1.0833334 -18.416666 124.416664
-1.0833334 -16.25 124.416664
-1.0833334 -14.083333 124.416664
-1.0833334 -11.916667 124.416664
-1.0833334 -9.75 124.416664
-1.0833334 -7.5833335 124.416664
-1.0833334 -5.4166665 124.416664
-1.0833334 -3.25 124.416664
-1.0833334 -1.0833334 124.416664
-1.0833334 1.0833334 124.416664
-1.0833334 3.25 124.416664
-1.0833334 5.4166665 124.416664
-1.0833334 7.5833335 124.416664
-1.0833334 9.75 124.416664
-1.0833334 11.916667 124.416664
-1.0833334 14.083333 124.416664
-1.0833334 16.25 124.416664
-1.0833334 18.416666 124.416664
-1.0833334 -27.083334 122.25
-1.0833334 -24.916666 122.25
-1.0833334 -22.75 122.25
-1.0833334 -20.583334 122.25
-1.0833334 -18.416666 122.25
-1.0833334 -16.25 122.25
-1.0833334 -14.083333 122.25
-1.0833334 -11.916667 122.25
-1.0833334 -9.75 122.25
-1.0833334 -7.5833335 122.25
-1.0833334 -5.4166665 122.25
-1.0833334 -3.25 122.25
-1.0833334 -1.0833334 122.25
-1.0833334 1.0833334 122.25
-1.0833334 3.25 122.25
-1.0833334 5.4166665 122.25
-1.0833334 7.5833335 122.25
-1.0833334 9.75 122.25
-1.0833334 11.916667 122.25
-1.0833334 14.083333 122.25
-1.0833334 16.25 122.25
-1.0833334 18.416666 122.25
-1.0833334 20.583334 122.25
-1.0833334 -27.083334 120.083336
-1.0833334 -24.916666 120.083336
-1.0833334 -22.75 120.083336
-1.0833334 -20.583334 120.083336
-1.0833334 -18.416666 120.083336
-1.0833334 -16.25 120.083336
-1.0833334 -14.083333 120.083336
-1.0833334 -11.916667 120.083336
-1.0833334 -9.75 120.083336
-1.0833334 -7.5833335 120.083336
-1.0833334 -5.4166665 120.083336
-1.0833334 -3.25 120.083336
-1.0833334 -1.0833334 120.083336
-1.0833334 1.0833334 120.083336
-1.0833334 3.25 120.083336
-1.0833334 5.4166665 120.083336
-1.0833334 7.5833335 120.083336
-1.0833334 9.75 120.083336
-1.0833334 11.916667 120.083336
-1.0833334 14.083333 120.083336
-1.0833334 16.25 120.083336
-1.0833334 18.416666 120.083336
-1.0833334 20.583334 120.083336
-1.0833334 22.75 120.083336
-1.0833334 -27.083334 117.916664
-1.0833334 -24.916666 117.916664
-1.0833334 -22.75 117.916664
-1.0833334 -20.583334 117.916664
-1.0833334 -18.416666 117.916664
-1.0833334 -16.25 117.916664
-1.0833334 -14.083333 117.916664
-1.0833334 -11.916667 117.916664
-1.0833334 -9.75 117.916664
-1.0833334 -7.5833335 117.916664
-1.0833334 -5.4166665 117.916664
-1.0833334 -3.25 117.916664
-1.0833334 -1.0833334 117.916664
-1.0833334 1.0833334 117.916664
-1.0833334 3.25 117.916664
-1.0833334 5.4166665 117.916664
-1.0833334 7.5833335 117.916664
-1.0833334 9.75 117.916664
-1.0833334 11.916667 117.916664
-1.0833334 14.083333 117.916664
-1.0833334 16.25 117.916664
-1.0833334 18.416666 117.916664
-1.0833334 20.583334 117.916664
-1.0833334 22.75 117.916664
-1.0833334 24.916666 117.916664
